# .PCD v0.7 - Point Cloud Data file format
VERSION 0.7
FIELDS x y z rgb
SIZE 4 4 4 4
TYPE F F F F
COUNT 1 1 1 1
WIDTH 1008
HEIGHT 1
VIEWPOINT 0 0 0 1 0 0 0
POINTS 1008
DATA ascii
0.55377448 -0.15447092 0.65892231 2.8599577e-39
0.55835837 -0.15255095 0.65811014 2.8599577e-39
0.5618782 -0.15080829 0.65874672 3.0443461e-39
0.56475204 -0.14973794 0.65761101 3.4131259e-39
0.5682441 -0.14850253 0.65833151 7.0076372e-39
0.57297248 -0.14763208 0.65747762 1.106312e-38
0.44639009 -0.072097063 0.65762007 7.1012355e-39
0.43959469 -0.066370793 0.65805304 5.7161291e-39
0.44146228 -0.068747617 0.65764338 5.7161291e-39
0.71554452 -0.066779554 0.65607506 9.851969e-39
0.43670133 -0.062539391 0.65746111 5.9927159e-39
0.70785379 -0.061324317 0.65793055 7.5305107e-39
0.71237689 -0.064710326 0.65672696 9.1068397e-39
0.4347901 -0.057040609 0.65589142 2.0283039e-39
0.43508685 -0.058047377 0.65746272 1.1063476e-39
0.70243001 -0.056234431 0.65661305 6.1529782e-39
0.70511413 -0.058748152 0.65773177 5.9693073e-39
0.43453798 -0.052540947 0.65682143 7.4685677e-39
0.69788647 -0.05169351 0.6579079 5.8774718e-39
0.70099282 -0.054865047 0.65812612 7.5305107e-39
0.43433893 -0.048543528 0.65736222 7.5636598e-39
0.43564522 -0.046413511 0.65788698 6.6427895e-39
0.69439369 -0.046372317 0.65855241 7.7141817e-39
0.69589567 -0.048649002 0.65651935 6.1529782e-39
0.43830401 -0.043214869 0.65804172 7.3796329e-39
0.44141316 -0.040636685 0.65864754 8.7614785e-39
0.69225413 -0.043006122 0.65777165 5.5101298e-39
0.44404978 -0.038897097 0.65741241 7.2874372e-39
0.44722819 -0.036856204 0.65759164 6.5505967e-39
0.68788886 -0.036811866 0.65807241 8.7243721e-39
0.69021499 -0.039916784 0.65776408 8.0815237e-39
0.45241848 -0.033452176 0.6572203 6.1821757e-39
0.45620358 -0.030708188 0.65647942 6.1821757e-39
0.68386632 -0.031312283 0.65715951 8.7243721e-39
0.68621314 -0.034402035 0.65681326 8.7243721e-39
0.45816568 -0.029274762 0.65738642 6.1821757e-39
0.46160144 -0.0267292 0.65782863 6.7349851e-39
0.67929173 -0.025217613 0.65643394 8.7243721e-39
0.68102336 -0.027617244 0.65761441 8.7243721e-39
0.46389055 -0.024991177 0.65904993 8.6692843e-39
0.46678954 -0.022939827 0.65712976 7.7484154e-39
0.4728713 -0.020976998 0.65564317 7.0112119e-39
0.67731583 -0.022453044 0.6572755 8.7243721e-39
0.47668195 -0.019534443 0.65781599 7.5640227e-39
0.67350072 -0.017001307 0.65751505 8.7243721e-39
0.67536396 -0.019700883 0.65809631 8.7243721e-39
0.66910225 -0.010696735 0.65711105 8.7243721e-39
0.67096603 -0.013384263 0.65767843 8.7243721e-39
0.66659158 -0.0070868419 0.65814108 8.7243721e-39
0.66375613 -0.0029332482 0.65735739 8.7243721e-39
0.65929365 0.0035850229 0.65753347 8.7243721e-39
0.66131759 0.00062765926 0.65745455 8.7243721e-39
0.65687466 0.0071201827 0.65762842 8.7243721e-39
0.65324044 0.012396024 0.65735632 8.7243721e-39
0.64895105 0.018519634 0.65741575 8.7243721e-39
0.65078741 0.015897438 0.65663785 8.7243721e-39
0.64471829 0.024600174 0.65831769 8.7243721e-39
0.64652896 0.022000009 0.65755635 8.7243721e-39
0.64231724 0.028057948 0.65757793 8.7243721e-39
0.63900292 0.032876283 0.65781623 8.7243721e-39
0.63765448 0.037528247 0.657278 8.7243721e-39
0.64191645 0.041904308 0.65760356 8.7243721e-39
0.64666557 0.04683334 0.65792644 8.7243721e-39
0.4493016 0.053713486 0.65688586 8.0284593e-39
0.65183753 0.052175749 0.6572848 8.7243721e-39
0.45240927 0.05749213 0.65723538 8.4912157e-39
0.45506498 0.05971982 0.65971595 8.3064685e-39
0.65677941 0.057005078 0.6577369 8.7243721e-39
0.6607371 0.059756346 0.65722978 8.7243721e-39
0.45762089 0.062868752 0.65690672 8.4912157e-39
0.66340011 0.061565425 0.65819019 8.7243721e-39
0.66613978 0.06342192 0.65776753 8.7243721e-39
0.46216336 0.067480408 0.65773976 8.3064685e-39
0.66994667 0.065317094 0.65749192 8.7243721e-39
0.67460173 0.067239106 0.65762091 8.7243721e-39
0.46794653 0.071700133 0.6580103 8.3064685e-39
0.47138542 0.073855996 0.65799379 8.3064685e-39
0.47403049 0.075548105 0.6565395 8.3064685e-39
0.47714281 0.077687114 0.65709513 8.3064685e-39
0.48201871 0.080936074 0.65765452 8.3064685e-39
0.48608118 0.083658144 0.65816617 8.3983054e-39
0.48875824 0.085399956 0.65677726 8.6741874e-39
0.49309602 0.08818686 0.65695137 9.6858605e-39
0.49826154 0.09154547 0.65728086 9.041905e-39
0.5016287 0.093784869 0.65765131 8.4905052e-39
0.50429118 0.095491558 0.65774363 8.3983054e-39
0.508892 0.098374665 0.65770453 8.3983054e-39
0.51285654 0.10065322 0.65863413 8.4901465e-39
0.51754928 0.1034062 0.65721953 9.2259417e-39
0.52256113 0.10614241 0.65674275 9.2259403e-39
0.52802324 0.10888273 0.65703356 9.5936592e-39
0.53336549 0.11161652 0.65755397 8.9500611e-39
0.53695291 0.11345236 0.65790349 8.3983096e-39
0.54056013 0.11529828 0.65825486 8.3064685e-39
0.60973221 0.12917511 0.65755838 2.6729152e-39
0.60831571 0.13242956 0.65752596 2.0279143e-39
0.60657316 0.13733527 0.6574564 1.8438986e-40
0.60597998 0.14238158 0.65686435 6.0849116e-39
0.60564494 0.14736171 0.65727401 1.1708845e-38
0.60779965 0.15263283 0.65727758 1.1801041e-38
0.61089003 0.15449354 0.65878606 1.3644953e-38
0.44865009 0.19414151 0.6575135 1.1705799e-38
0.45143452 0.19211908 0.65747195 1.1705797e-38
0.44336924 0.19827527 0.65787172 1.0969692e-38
0.44629347 0.1958309 0.65686125 1.0877501e-38
0.4392398 0.20391557 0.65727341 1.1797991e-38
0.44110629 0.20135866 0.65686685 1.152213e-38
0.43670002 0.20742001 0.65746307 1.1613963e-38
0.42254901 0.21167037 0.65963376 8.1128161e-39
0.43300933 0.2124594 0.65708405 3.5971402e-39
0.42849335 0.21804021 0.65732419 2.8599563e-39
0.43053007 0.21533072 0.65840507 2.8599577e-39
0.42636126 0.22193739 0.65929568 4.9793179e-39
0.42629546 0.22796774 0.65774041 1.050877e-38
0.63927436 0.22784677 0.65539849 1.0334907e-38
0.64237738 0.22828528 0.65575767 1.1810752e-38
0.64653301 0.22864701 0.65580177 1.3561746e-38
0.42651978 0.23217352 0.65706813 9.6808718e-39
0.62225795 0.23475368 0.65582186 3.7865565e-39
0.63410681 0.23422571 0.65527451 3.4331588e-39
0.63754928 0.23187336 0.65552348 3.4331588e-39
0.64196068 0.2324791 0.65623838 5.090169e-39
0.6470595 0.23256357 0.65620214 1.4114203e-38
0.65176618 0.23265839 0.65631664 1.816434e-38
0.65683109 0.23486573 0.65636462 2.8706958e-39
0.42823455 0.23543912 0.65684843 7.0990467e-39
0.43109262 0.23781285 0.65881693 7.4671089e-39
0.63276571 0.23821449 0.65542006 3.4338791e-39
0.63769364 0.23701824 0.65591902 3.4338777e-39
0.64167416 0.23757774 0.6565693 3.433519e-39
0.64744461 0.23738211 0.65651321 5.0912452e-39
0.65281671 0.23761773 0.65696269 1.3375922e-38
0.65691441 0.23788567 0.6573227 8.0271897e-39
0.66182846 0.23852551 0.65688485 2.5883986e-39
0.43630537 0.24102847 0.65832341 6.8220913e-39
0.627666 0.24275948 0.65516448 3.3413233e-39
0.63209695 0.24281326 0.65554595 3.4342378e-39
0.63750631 0.24213333 0.65613699 3.4338777e-39
0.64268541 0.24292026 0.65671933 3.4338791e-39
0.64817947 0.24207091 0.6569851 3.5257146e-39
0.6524983 0.24274564 0.65732378 3.8015854e-39
0.65778404 0.24229123 0.65791947 8.3094883e-39
0.66268271 0.24257879 0.6581189 1.4478336e-38
0.66672361 0.2425274 0.65712273 2.7724382e-39
0.62390649 0.24855237 0.65500909 3.5264334e-39
0.62707287 0.24736452 0.65520746 3.5264334e-39
0.63236952 0.24766085 0.65555549 3.5257146e-39
0.63749355 0.24730836 0.65615177 3.4328029e-39
0.64232308 0.24782439 0.65680808 3.2455544e-39
0.64828092 0.24732679 0.65686971 3.1505029e-39
0.65275949 0.24807318 0.65702754 2.7759989e-39
0.65685338 0.24692814 0.65765351 2.8681945e-39
0.662184 0.24774691 0.65823829 5.7215899e-39
0.66755497 0.24735379 0.65816891 6.0903808e-39
0.6719175 0.24789687 0.65663391 7.8417307e-39
0.62389898 0.25111425 0.65501809 3.5260747e-39
0.62716645 0.25168416 0.65509677 3.4310204e-39
0.63248658 0.25257891 0.65541828 2.8696252e-39
0.63753229 0.25250229 0.65610671 2.682018e-39
0.64168936 0.25286445 0.65628898 2.679874e-39
0.64762264 0.25252247 0.65630937 2.5876784e-39
0.65265429 0.25296599 0.65688419 2.5873196e-39
0.65727609 0.25233108 0.65717787 2.5873211e-39
0.66198581 0.2525028 0.6575852 2.4951254e-39
0.66677225 0.25258189 0.65772378 2.9560994e-39
0.67046851 0.25202918 0.65691626 8.9477111e-39
0.63316739 0.25701329 0.65537202 2.5873211e-39
0.63799053 0.25785589 0.65557414 2.5873225e-39
0.64276326 0.2573351 0.65557557 2.5876812e-39
0.64786398 0.25783169 0.65603274 2.5873196e-39
0.65340948 0.25734654 0.65655369 2.5873211e-39
0.65792412 0.25782356 0.6564489 2.5876826e-39
0.6628226 0.25728828 0.65647465 2.5873211e-39
0.66655219 0.25712758 0.65665585 3.2326863e-39
0.6334849 0.26113155 0.65512443 2.5873225e-39
0.63841075 0.2627691 0.65508538 2.5876798e-39
0.64273828 0.26222661 0.65534109 2.5876812e-39
0.6469152 0.26291773 0.65580219 2.5873211e-39
0.65246427 0.26231366 0.65637845 2.4954842e-39
0.65832889 0.26292863 0.65573025 2.5876826e-39
0.66276634 0.26193136 0.65601164 3.3248791e-39
0.63830113 0.26748037 0.65521282 2.5876812e-39
0.64273304 0.26742807 0.65534717 2.6798782e-39
0.64778262 0.26766163 0.65612561 2.4029256e-39
0.65341836 0.26752964 0.65628117 2.6798796e-39
0.65834135 0.26762441 0.65597939 4.1546398e-39
0.6616866 0.26645792 0.65616697 9.592349e-39
0.63422084 0.27390286 0.65514117 2.5873225e-39
0.6377123 0.27240783 0.65533412 2.5873225e-39
0.64236933 0.27248582 0.65576679 2.5873211e-39
0.64741498 0.27273622 0.65654677 2.4951254e-39
0.6528635 0.2725538 0.65690964 2.9561022e-39
0.65709901 0.27251863 0.65672106 1.0422833e-38
0.60305882 0.27848426 0.65517431 2.5873211e-39
0.60719669 0.27798691 0.65511358 3.5096333e-39
0.62389672 0.27932513 0.65502077 1.4476515e-38
0.62713468 0.27909502 0.65513432 1.0881989e-38
0.63255745 0.27755967 0.65533519 1.0052593e-38
0.63770086 0.27760634 0.65591073 2.5873211e-39
0.64273095 0.27759293 0.65666622 2.4951254e-39
0.64791232 0.27762592 0.6572904 2.5876812e-39
0.65248501 0.27778742 0.65790159 8.0257548e-39
0.65539467 0.27721655 0.65798402 1.4386143e-38
0.5989064 0.2829842 0.65528607 2.5873211e-39
0.60286885 0.28260472 0.6554085 2.8642695e-39
0.60734844 0.28272769 0.65519226 7.0116029e-39
0.61240959 0.28310841 0.65510255 1.2448945e-38
0.6174621 0.28226614 0.65513724 1.051357e-38
0.62261915 0.28244653 0.65522504 7.840995e-39
0.62689131 0.28241917 0.65542251 1.1988328e-38
0.63226169 0.28259766 0.65568203 8.9466139e-39
0.63733828 0.28263569 0.65633243 2.4951254e-39
0.64220005 0.28257081 0.65727782 2.495124e-39
0.6472438 0.28256717 0.6580537 4.4308637e-39
0.65176278 0.28191707 0.6585955 1.3095406e-38
0.59247708 0.28830472 0.65537328 2.5873211e-39
0.5975771 0.28738439 0.65535331 2.7720724e-39
0.6031521 0.2872209 0.65532362 9.9604001e-39
0.60730129 0.2877692 0.65524989 1.2448945e-38
0.61273569 0.28721678 0.65523553 9.7763703e-39
0.61802167 0.28742445 0.65545255 1.2080164e-38
0.62232679 0.28744233 0.65557384 1.0697959e-38
0.62744516 0.28760922 0.65575695 8.209416e-39
0.63251984 0.28747979 0.65613085 3.5089102e-39
0.63777125 0.28745952 0.65714526 2.4951212e-39
0.64276379 0.28775439 0.65794057 4.1546384e-39
0.64701569 0.28681499 0.65831423 1.152845e-38
0.65024137 0.28568125 0.65857208 1.7427499e-38
0.58756316 0.29308271 0.65544003 2.4947611e-39
0.59224963 0.29292116 0.65539449 2.6798796e-39
0.59721392 0.29111511 0.6551441 4.1546384e-39
0.60307968 0.29194963 0.65514851 1.0974544e-38
0.6073333 0.29284605 0.65521067 8.854421e-39
0.61255771 0.29222023 0.65545112 1.0974544e-38
0.61779851 0.2924287 0.65572065 9.1313653e-39
0.62246662 0.29275861 0.6559726 8.2094146e-39
0.62757927 0.29203793 0.65625715 4.5226964e-39
0.63233644 0.29269412 0.65690869 2.4951212e-39
0.63747317 0.29250699 0.65749234 3.4170775e-39
0.64254981 0.2917864 0.65774912 9.8692974e-39
0.58326775 0.29808131 0.65572476 2.5873154e-39
0.58775848 0.29768726 0.65575987 2.7720752e-39
0.59233099 0.29796121 0.65529233 5.721234e-39
0.59810674 0.29857779 0.65522277 1.2356748e-38
0.6028167 0.29739031 0.65528387 1.2356749e-38
0.60702211 0.29776344 0.65559131 7.2878254e-39
0.61224926 0.29716057 0.65582538 1.2356749e-38
0.61759984 0.29776677 0.65614754 1.2448941e-38
0.62253737 0.29751566 0.65664178 3.8780501e-39
0.62768024 0.29733896 0.6569351 2.5873196e-39
0.63208914 0.29774055 0.65719897 3.0482978e-39
0.63695836 0.2971395 0.6567744 5.4446471e-39
0.64227253 0.29584479 0.65587914 8.0253806e-39
0.57780367 0.30264816 0.65565586 2.402557e-39
0.58200824 0.30244386 0.65618497 2.6795167e-39
0.5874548 0.30252075 0.65614384 3.5096347e-39
0.59198546 0.30279532 0.65572602 1.1712104e-38
0.59728503 0.3023127 0.65571606 1.1895774e-38
0.60250247 0.30260551 0.65586001 1.1895773e-38
0.6077885 0.30252111 0.65624011 1.1896133e-38
0.61281484 0.30223528 0.65645707 7.0116001e-39
0.6175673 0.30296084 0.65698761 3.8776913e-39
0.6226691 0.30229807 0.6572364 2.5876826e-39
0.62783939 0.30231142 0.65719861 2.7720738e-39
0.63218141 0.30263877 0.6564334 6.0900165e-39
0.63702232 0.30088258 0.65538269 8.7625883e-39
0.57356614 0.3078739 0.65564948 1.8486546e-39
0.57738698 0.30739242 0.6563195 2.6798782e-39
0.58229721 0.30770844 0.65641147 3.1404934e-39
0.58729452 0.30742097 0.65634632 1.0605765e-38
0.59274429 0.30733231 0.65609848 1.1711746e-38
0.59815907 0.30748257 0.65594983 1.0052594e-38
0.60268074 0.30779636 0.65666753 8.4856329e-39
0.60755748 0.30746526 0.65701073 1.2817365e-38
0.61226672 0.30705354 0.65712041 6.9190457e-39
0.61738867 0.30754974 0.65753138 2.5876826e-39
0.62282676 0.30761477 0.65761179 2.7720752e-39
0.62777585 0.30713096 0.65701079 4.615978e-39
0.63145787 0.30802715 0.65662283 1.2542241e-38
0.57320207 0.31250516 0.65585637 2.4025627e-39
0.5770151 0.31249914 0.65622979 2.6798768e-39
0.58211666 0.3125774 0.65631151 9.9607588e-39
0.58745641 0.31248149 0.65614158 7.933192e-39
0.59227544 0.31234041 0.65592998 1.1987971e-38
0.59719026 0.31244442 0.65616339 1.1987604e-38
0.60249382 0.31267941 0.65719151 1.0881988e-38
0.60777187 0.31274739 0.65731311 3.4170775e-39
0.61285043 0.312132 0.65773207 2.7717109e-39
0.61801493 0.31238425 0.65809399 2.587684e-39
0.62295252 0.31279063 0.65746254 5.3528158e-39
0.6276179 0.31190601 0.65693384 9.8692932e-39
0.57330877 0.31748569 0.65571803 2.3103656e-39
0.57704473 0.3174524 0.65619153 2.9561036e-39
0.58227557 0.31761795 0.65610886 1.0605765e-38
0.58767992 0.31757656 0.65585881 1.125113e-38
0.59263873 0.31770107 0.65589935 7.8406334e-39
0.59728146 0.31696931 0.65647429 1.2264548e-38
0.60248101 0.31739092 0.65683073 9.6841733e-39
0.60757798 0.31807011 0.6569857 2.5876798e-39
0.61283135 0.31719798 0.65775502 2.5873196e-39
0.61804932 0.31749597 0.65805274 2.9564651e-39
0.62228858 0.31729841 0.6575942 9.3157607e-39
0.57454199 0.32195142 0.65544564 2.4025627e-39
0.57748103 0.32262421 0.65562993 2.5873211e-39
0.58268845 0.32224497 0.65558141 4.5230565e-39
0.58764386 0.32263762 0.65546429 1.0790152e-38
0.59270871 0.3223213 0.65581173 1.1342965e-38
0.59751433 0.32258421 0.65618527 8.8544182e-39
0.60210705 0.32256696 0.65634727 3.4170775e-39
0.60709381 0.32280722 0.65682417 2.5873182e-39
0.61235487 0.32195717 0.65757877 2.5873196e-39
0.61766607 0.3227261 0.65757477 5.0762317e-39
0.58203858 0.32550815 0.65508479 2.5876826e-39
0.58718985 0.3276048 0.65545034 3.0482936e-39
0.59196478 0.32778126 0.65575188 7.4722167e-39
0.59715885 0.32734948 0.65587306 5.8134254e-39
0.6022687 0.32768825 0.65614808 2.5873211e-39
0.60684335 0.32759672 0.65680051 2.5873182e-39
0.61226815 0.32735541 0.65711886 3.3252434e-39
0.61700904 0.32717749 0.65693259 1.1805039e-38
0.5840295 0.33259553 0.65519476 2.495124e-39
0.58741426 0.33239052 0.6556285 2.495124e-39
0.59206432 0.33283409 0.65562707 2.6798768e-39
0.59708959 0.33233196 0.65595913 2.772071e-39
0.60222012 0.33270136 0.6562078 2.5873211e-39
0.60731536 0.33247209 0.65655416 2.8642667e-39
0.61262858 0.33233896 0.65641898 1.1712484e-38
0.6160236 0.33008546 0.65653598 1.7151278e-38
0.58902061 0.33626768 0.65548736 2.4025655e-39
0.59309083 0.3375279 0.65566325 2.5873196e-39
0.59819317 0.3376402 0.65590751 2.5873225e-39
0.6024968 0.33732358 0.65613091 2.5873225e-39
0.60742325 0.33727208 0.65604597 8.1179532e-39
0.59355491 0.34167743 0.6550796 2.4947611e-39
0.59824216 0.34258589 0.65528113 2.8639037e-39
0.60227811 0.34169692 0.65587234 3.6933029e-39
0.60568804 0.34120601 0.65590405 1.162029e-38
0.60158038 0.34526122 0.65567565 2.3103642e-39
0.46438691 -0.41682202 0.66097432 6.2448278e-39
0.46649221 -0.41937727 0.66032779 6.2448278e-39
0.46124917 -0.41301367 0.66193795 6.2448278e-39
0.45766324 -0.40852493 0.66229594 6.2448278e-39
0.454238 -0.40272453 0.66243076 6.2448278e-39
0.4510603 -0.39717829 0.66219378 6.3370234e-39
0.44776756 -0.39153546 0.66217721 6.8916265e-39
0.44448847 -0.38592046 0.66217053 6.8919852e-39
0.44140404 -0.38050416 0.66186845 7.2586097e-39
0.43849337 -0.37552607 0.66267377 7.9954517e-39
0.43662956 -0.37211344 0.66218048 7.8110618e-39
0.43311006 -0.36575499 0.66223884 7.5351966e-39
0.43046612 -0.36079577 0.66128314 9.1943452e-39
0.42761981 -0.35620034 0.66345876 1.0300326e-38
0.41706353 -0.35444722 0.66472757 1.0578705e-38
0.4247331 -0.3510429 0.66297543 1.0485792e-38
0.42215246 -0.34617376 0.66197717 9.3798113e-39
0.41967821 -0.34168535 0.66219735 7.9036148e-39
0.41721621 -0.33721858 0.66241282 8.547901e-39
0.4147664 -0.33277458 0.6626308 8.4557068e-39
0.41506863 -0.33360368 0.66486347 9.1003517e-39
0.41193631 -0.32744059 0.66309094 7.7217375e-39
0.40838021 -0.32063556 0.66304219 8.1870232e-39
0.41019762 -0.32392395 0.66112816 7.2618425e-39
0.40679705 -0.31755167 0.66221195 6.6157613e-39
0.40415555 -0.31271437 0.66380036 6.2448292e-39
0.40244055 -0.30896205 0.66277081 6.2448278e-39
0.40032452 -0.30276659 0.66249067 6.2448278e-39
0.63327253 -0.30032468 0.66496885 2.8599563e-39
0.39821541 -0.29659575 0.66221696 6.2448278e-39
0.62894785 -0.29587263 0.66478896 2.8599577e-39
0.63110667 -0.29809505 0.66487879 2.8599577e-39
0.3984558 -0.29227608 0.66289061 6.523574e-39
0.40079701 -0.29048812 0.66301608 6.2448278e-39
0.62468976 -0.29146916 0.66456485 2.8599577e-39
0.62679601 -0.29365736 0.66469944 2.8599577e-39
0.40292898 -0.28847587 0.6621471 6.2448278e-39
0.40641853 -0.28603396 0.6629048 7.35152e-39
0.6226123 -0.28789824 0.66310143 2.8599577e-39
0.40893263 -0.28372097 0.66203362 8.3660181e-39
0.4118529 -0.28154746 0.66231376 6.4299379e-39
0.61899811 -0.28130183 0.66216052 2.8599577e-39
0.62057066 -0.28405488 0.66290474 2.8599577e-39
0.41437238 -0.27951968 0.6619457 8.3768501e-39
0.41747427 -0.27753621 0.66251212 9.4871535e-39
0.42122492 -0.27565515 0.66315299 6.3373835e-39
0.6171664 -0.27771288 0.66303384 2.8599577e-39
0.42345494 -0.27442497 0.66328335 6.2451893e-39
0.4274503 -0.27230272 0.66237837 7.4502121e-39
0.43094417 -0.27050433 0.66183597 8.2832111e-39
0.61325973 -0.27171275 0.66247934 2.9517932e-39
0.61530364 -0.27440268 0.6626457 2.8599577e-39
0.43348789 -0.2692053 0.66205072 7.3572976e-39
0.43742302 -0.26720032 0.66266274 6.5228566e-39
0.44098568 -0.2653667 0.66211647 6.2448278e-39
0.60872829 -0.26641056 0.66140074 4.9797159e-39
0.6109162 -0.26888138 0.66268271 4.2421592e-39
0.44217926 -0.26475239 0.66193575 6.2448278e-39
0.60368502 -0.26032096 0.66098541 1.0508497e-38
0.60589671 -0.26270431 0.6626541 1.1156036e-38
0.60198021 -0.25796911 0.66241413 8.2014412e-39
0.59726906 -0.25222379 0.66257077 7.5564333e-39
0.59286034 -0.24678716 0.66252631 6.2635253e-39
0.59530443 -0.24962448 0.66342533 5.8018255e-39
0.58829647 -0.24128741 0.66166753 7.0932901e-39
0.59049338 -0.24372652 0.66285264 6.2624435e-39
0.58396131 -0.23567903 0.6631825 6.3539188e-39
0.58614355 -0.23827261 0.66349399 6.3535587e-39
0.57405227 -0.23159631 0.66267711 1.0785805e-38
0.57911223 -0.23032735 0.66014242 7.2784031e-39
0.58152354 -0.23287019 0.66233146 6.6312288e-39
0.57718742 -0.22740252 0.66312361 6.5383115e-39
0.5726946 -0.22216964 0.66179311 7.6489877e-39
0.56851989 -0.21700466 0.66324353 7.0958111e-39
0.56310457 -0.21150704 0.66241175 7.8333789e-39
0.56568182 -0.21406144 0.66298908 8.665306e-39
0.55876595 -0.20698607 0.66197366 1.0970557e-38
0.56110001 -0.20900315 0.66372526 7.833016e-39
0.55409265 -0.20065853 0.66245979 1.0049702e-38
0.55615216 -0.20381664 0.66191965 1.1708845e-38
0.55181682 -0.19711168 0.66198176 4.3347122e-39
0.54898101 -0.19247141 0.66270506 2.8599577e-39
0.54493797 -0.18656628 0.66023922 2.8599577e-39
0.54631412 -0.18806331 0.66234171 2.8599577e-39
0.5431186 -0.18306805 0.6621812 2.8599577e-39
0.53922021 -0.17643674 0.66274118 2.8599577e-39
0.54064584 -0.17915648 0.66211379 2.8599577e-39
0.53771287 -0.17250709 0.66260415 2.8599577e-39
0.53802294 -0.16746731 0.66305947 2.8599577e-39
0.53896922 -0.1630445 0.66176277 2.8599577e-39
0.5413146 -0.16051522 0.66252297 2.8599577e-39
0.54355687 -0.15892421 0.66211337 2.8599577e-39
0.54688573 -0.15692069 0.66288996 2.8599577e-39
0.55076468 -0.15526867 0.66163009 2.8599577e-39
0.55336648 -0.15397847 0.66211051 2.8599577e-39
0.55685163 -0.15225117 0.66274953 2.8599577e-39
0.56144464 -0.15032278 0.66195709 3.0439874e-39
0.56279147 -0.1495879 0.66282165 3.2283773e-39
0.56562161 -0.14914599 0.66306829 3.6893498e-39
0.57197738 -0.14812887 0.66206193 8.5745845e-39
0.57701987 -0.14750494 0.66281253 1.1339341e-38
0.444572 -0.070968084 0.66066253 6.640256e-39
0.44734818 -0.073116899 0.66423988 7.1945143e-39
0.43908986 -0.065956526 0.66303205 6.1771072e-39
0.44112819 -0.0683593 0.6623348 5.0707596e-39
0.71307069 -0.06796959 0.66385186 1.3224311e-38
0.71588022 -0.068171658 0.66357636 1.3224311e-38
0.43650725 -0.062411815 0.66238743 6.0849116e-39
0.70911598 -0.062487923 0.66010898 8.0815237e-39
0.43464947 -0.057358246 0.66254711 5.6239334e-39
0.70047987 -0.056333259 0.66388446 7.8060172e-39
0.43422824 -0.052941605 0.66238475 8.1142986e-39
0.69774783 -0.051736228 0.66284227 6.4284847e-39
0.70086342 -0.054712683 0.6608777 6.8876622e-39
0.43441546 -0.048949093 0.66275203 8.300499e-39
0.43634579 -0.046205498 0.66220403 6.3665656e-39
0.69374299 -0.045864817 0.66228884 5.4182943e-39
0.69579923 -0.048962243 0.66228837 7.6223462e-39
0.43885985 -0.043462843 0.66205209 7.3796329e-39
0.44132152 -0.040914748 0.66246492 7.9324423e-39
0.69132394 -0.042163771 0.66224605 8.2651947e-39
0.44364426 -0.039066192 0.6631276 7.8402481e-39
0.44736272 -0.036602505 0.66284943 8.0242792e-39
0.68815744 -0.03783147 0.66257536 8.7243721e-39
0.45249078 -0.033206806 0.66257209 4.9825661e-39
0.45633858 -0.030483535 0.66172671 4.7059806e-39
0.68351793 -0.031404372 0.66232723 8.7243721e-39
0.68544614 -0.034133434 0.66286504 8.7243721e-39
0.45835271 -0.029063091 0.66253406 3.9705806e-39
0.46123731 -0.026937235 0.66331112 3.9702219e-39
0.67905062 -0.025071334 0.66062564 8.7243721e-39
0.68092525 -0.027741034 0.66251099 8.7243721e-39
0.46390989 -0.024834119 0.66309077 6.8264647e-39
0.46667573 -0.02272654 0.66274571 8.1164734e-39
0.47045141 -0.020606421 0.66352952 8.4852532e-39
0.67749929 -0.022818936 0.66282654 8.7243721e-39
0.47389823 -0.019192148 0.66486359 8.8533154e-39
0.4815625 -0.018089611 0.66106147 8.8551259e-39
0.67354661 -0.017167216 0.66225833 8.7243721e-39
0.67519897 -0.019538291 0.66349763 8.7243721e-39
0.66889536 -0.01056643 0.66256797 8.7243721e-39
0.67098743 -0.013559937 0.66244745 8.7243721e-39
0.66650075 -0.006993352 0.66259682 8.7243721e-39
0.66347182 -0.0025530923 0.66203141 8.7243721e-39
0.65921891 0.0036552353 0.66284484 8.7243721e-39
0.66104031 0.00099468417 0.66212177 8.7243721e-39
0.65680629 0.0071674343 0.66206342 8.7243721e-39
0.64174253 0.013112535 0.662763 8.7243721e-39
0.65309668 0.01243377 0.66274858 8.7243721e-39
0.64876282 0.018533692 0.66285962 8.7243721e-39
0.65062428 0.015921729 0.66205841 8.7243721e-39
0.6445784 0.024592297 0.66240102 8.7243721e-39
0.64618516 0.022288054 0.66230941 8.7243721e-39
0.64217752 0.028035548 0.66253537 8.7243721e-39
0.63851559 0.033753663 0.66239047 8.7243721e-39
0.64011157 0.031455278 0.66489887 8.7243721e-39
0.6372633 0.037183225 0.66209513 8.7243721e-39
0.63945985 0.040066011 0.66304386 8.7243721e-39
0.64214164 0.042696953 0.66257489 8.7243721e-39
0.45896214 0.04935699 0.66426432 8.3898023e-39
0.46168709 0.049462546 0.66258889 7.0990635e-39
0.6449362 0.045343742 0.66199321 8.7243721e-39
0.64770478 0.048276111 0.66232187 8.7243721e-39
0.44970858 0.053095508 0.66214889 7.4735143e-39
0.46514803 0.05156526 0.66477489 4.4253902e-39
0.64973193 0.050587967 0.66436857 8.7243721e-39
0.65214807 0.052872337 0.66164541 8.7243721e-39
0.45251817 0.0573362 0.66252482 8.2142757e-39
0.65646523 0.056890845 0.66201138 8.7243721e-39
0.66053295 0.059639785 0.6613819 8.7243721e-39
0.45716527 0.062686026 0.66174477 8.3064685e-39
0.66318238 0.061442733 0.66235316 8.7243721e-39
0.66582185 0.063287385 0.66204226 8.7243721e-39
0.67239362 0.064172819 0.66053087 8.7243721e-39
0.45998114 0.065723419 0.66262168 8.3064685e-39
0.46306807 0.06805709 0.66308463 8.3064685e-39
0.66830444 0.065089613 0.66321576 8.7243721e-39
0.67304033 0.067892343 0.66324687 8.7243721e-39
0.46686825 0.070972852 0.66244072 8.3064685e-39
0.47085893 0.07362242 0.66288733 8.3064685e-39
0.67803192 0.070728377 0.66302937 8.7243721e-39
0.68118584 0.07260219 0.66353291 8.7243721e-39
0.47341442 0.075297259 0.66157568 8.3064685e-39
0.4771114 0.077687621 0.66255677 8.3064685e-39
0.4821015 0.080938913 0.66292423 8.3064685e-39
0.48685652 0.084179692 0.66371477 8.6741832e-39
0.48823267 0.085121401 0.66162509 8.9500653e-39
0.49157274 0.087323688 0.66194314 9.8695385e-39
0.49537548 0.086331695 0.66206992 8.3064685e-39
0.49678841 0.090672709 0.66216642 9.041905e-39
0.50126034 0.093498707 0.6622178 8.3983082e-39
0.5039916 0.095209755 0.66220546 8.3983054e-39
0.508304 0.097781204 0.66257346 8.3983054e-39
0.51265395 0.10037044 0.6629315 8.4901451e-39
0.51631588 0.10268935 0.66299158 9.1337447e-39
0.52268207 0.10627178 0.66279054 9.0419036e-39
0.52705729 0.10853751 0.66105735 9.1341048e-39
0.53237432 0.111259 0.66159213 8.5823449e-39
0.5372746 0.11392298 0.66276866 8.3064685e-39
0.53060663 0.11604248 0.66341531 8.3983054e-39
0.54245222 0.11674495 0.66229373 8.3064685e-39
0.54597336 0.11858293 0.66279995 8.3061098e-39
0.60971618 0.12886205 0.66151625 0
0.60815358 0.13235834 0.66235816 2.7651094e-39
0.60652453 0.13691698 0.6623264 2.5807209e-39
0.60595483 0.14191072 0.66214687 2.9502602e-39
0.60552251 0.14685059 0.66267204 1.1155671e-38
0.6069172 0.1512215 0.66228938 1.2262019e-38
0.61281055 0.15453677 0.66040361 1.1801041e-38
0.44887385 0.19418997 0.66079974 1.1797633e-38
0.45228601 0.1916023 0.6619978 1.1706156e-38
0.44332147 0.19821621 0.66229981 1.1706156e-38
0.44599637 0.19619334 0.66238892 1.1706156e-38
0.43864107 0.20374839 0.66242188 1.1797991e-38
0.44050163 0.20120662 0.66201854 1.1706156e-38
0.43448755 0.20954204 0.66262829 8.2042676e-39
0.43636167 0.20688939 0.66309243 1.1797991e-38
0.44680652 0.20617157 0.66369998 1.1982741e-38
0.43230954 0.21284176 0.66223937 3.0443433e-39
0.4293192 0.21824598 0.66188896 2.9521561e-39
0.4306964 0.21649253 0.66318232 2.8599591e-39
0.42758787 0.22225961 0.66238767 3.1365446e-39
0.42616829 0.2268023 0.6635741 5.8086988e-39
0.42687336 0.23287593 0.66154271 8.1124517e-39
0.42924225 0.23562524 0.66477615 6.2689273e-39
0.43208942 0.23820134 0.66170228 6.7299054e-39
0.43801445 0.24267903 0.66348833 7.0983138e-39
0.44256553 0.24568427 0.66402233 9.0336471e-39
0.45478296 -0.40425354 0.66696453 6.2448278e-39
0.45150661 -0.3986178 0.66689265 6.2448278e-39
0.4482533 -0.3930186 0.66681451 7.3540354e-39
0.44486064 -0.38704544 0.6656422 7.7224549e-39
0.44510758 -0.38779199 0.66794598 7.9997565e-39
0.44173425 -0.38185188 0.6667738 8.2734693e-39
0.43868691 -0.37649029 0.66644454 8.8244851e-39
0.43598109 -0.37198424 0.66828889 9.3769358e-39
0.43331322 -0.36700338 0.66737008 8.2727547e-39
0.43046805 -0.36186704 0.66677403 9.2861807e-39
0.42755339 -0.35694617 0.66769207 1.0300326e-38
0.42468232 -0.35208011 0.66856003 1.0854213e-38
0.42211941 -0.34723765 0.66754949 1.0487587e-38
0.41971329 -0.34254411 0.6662792 8.3656664e-39
0.42011887 -0.34373212 0.66968513 9.4734418e-39
0.41697788 -0.33755174 0.66790491 9.7457141e-39
0.41357398 -0.33114073 0.66891158 9.4745124e-39
0.4154087 -0.33446455 0.66701961 9.6535199e-39
0.41184437 -0.32764205 0.66695404 8.7383921e-39
0.4090766 -0.32238603 0.66733104 8.8334618e-39
0.40688011 -0.31820846 0.66716272 6.5224894e-39
0.40367877 -0.31218496 0.66746378 6.2448292e-39
0.40503505 -0.31492001 0.66913903 6.2451879e-39
0.40110341 -0.30727819 0.66710472 6.2448278e-39
0.39816752 -0.3015424 0.66929412 6.2448278e-39
0.62686419 -0.30120623 0.66845769 2.8595975e-39
0.63485789 -0.30164522 0.66832751 2.7677592e-39
0.63664895 -0.30372259 0.66626984 2.4908052e-39
0.39727858 -0.29662284 0.66769904 8.0077019e-39
0.62853307 -0.29505789 0.66786599 2.8599577e-39
0.63175434 -0.29837877 0.66802084 2.8599563e-39
0.39856932 -0.2939896 0.66750497 6.6164899e-39
0.40167159 -0.29152352 0.66753924 6.2448278e-39
0.62478685 -0.29062861 0.66834241 2.8599577e-39
0.62638736 -0.2928496 0.66777176 2.8599577e-39
0.40406996 -0.28937659 0.66674459 6.2448278e-39
0.40675545 -0.28700468 0.66739106 7.4437143e-39
0.62312412 -0.28723556 0.66752034 2.8599577e-39
0.40937203 -0.28421322 0.668181 7.4437143e-39
0.41165704 -0.28195649 0.66702688 7.6335201e-39
0.61947453 -0.28122965 0.66680229 2.8599577e-39
0.62090504 -0.28352618 0.66814274 2.8599577e-39
0.41420877 -0.27924025 0.66732049 1.0875846e-38
0.41729668 -0.27774176 0.66760266 7.6338803e-39
0.42205885 -0.2759113 0.66765714 6.2448292e-39
0.61743879 -0.27757758 0.66739208 2.8599577e-39
0.42436609 -0.27474225 0.66637146 6.2448292e-39
0.42760625 -0.27316901 0.66760212 8.9314588e-39
0.43141854 -0.27103117 0.66787738 8.2814077e-39
0.61419922 -0.2721684 0.66786444 4.7031318e-39
0.61551493 -0.27421528 0.66759479 2.9517932e-39
0.43359986 -0.26947168 0.6668821 9.9492107e-39
0.43759844 -0.26741716 0.6678282 8.3746879e-39
0.44100937 -0.26549926 0.66753292 6.2448292e-39
0.60939187 -0.26646283 0.66711825 1.0510675e-38
0.61164749 -0.26896152 0.66830981 9.03592e-39
0.60482883 -0.26090169 0.66742069 1.1616289e-38
0.60708839 -0.26366848 0.66729003 1.1616649e-38
0.60185403 -0.25724024 0.66738832 7.6479031e-39
0.59784532 -0.25213027 0.66811901 5.7996619e-39
0.59354246 -0.2468814 0.66690141 5.7078264e-39
0.59509784 -0.24873558 0.66758716 5.8918589e-39
0.58897364 -0.24085811 0.66735202 5.9836944e-39
0.59097987 -0.24337643 0.66789961 5.983693e-39
0.58422768 -0.23503886 0.66676652 5.9836944e-39
0.58668101 -0.23785563 0.66760337 5.9836944e-39
0.58233845 -0.23252232 0.6675747 5.9836944e-39
0.57832104 -0.22764057 0.66769153 5.9836944e-39
0.5736624 -0.22219226 0.66709656 5.9836944e-39
0.57629555 -0.22481571 0.66895491 5.9836944e-39
0.56890917 -0.21621872 0.66797131 5.7078264e-39
0.57132179 -0.21921669 0.66747946 5.6152706e-39
0.56440216 -0.21142547 0.66727096 7.8333803e-39
0.56622738 -0.21335006 0.66751683 7.2787618e-39
0.55904341 -0.20548986 0.66772628 1.1708845e-38
0.56165779 -0.20854193 0.6669243 8.110326e-39
0.55499822 -0.20195985 0.66520244 1.1708846e-38
0.5565933 -0.20276852 0.66780865 1.1708845e-38
0.55258906 -0.19817404 0.66786921 9.0355599e-39
0.54796731 -0.19140984 0.6680032 2.8599577e-39
0.55002624 -0.19441223 0.66656458 3.0439874e-39
0.54438555 -0.18528381 0.66756982 2.8599577e-39
0.54599977 -0.18821342 0.66758317 2.8599577e-39
0.5425685 -0.18182307 0.66740012 2.8599577e-39
0.53934914 -0.17528413 0.66520351 2.8599577e-39
0.54125011 -0.17756326 0.66787231 2.8599577e-39
0.53887647 -0.17176935 0.66697258 2.8599577e-39
0.54049015 -0.17411175 0.66890156 2.8599577e-39
0.53809482 -0.1675036 0.66822451 2.8599577e-39
0.53890812 -0.1630522 0.6671176 2.8599577e-39
0.5413903 -0.16137677 0.66768247 2.8599577e-39
0.5438782 -0.15948352 0.66694331 2.8599577e-39
0.54765528 -0.15695441 0.66776741 2.8599577e-39
0.55216658 -0.15385066 0.66764396 2.8599577e-39
0.5574435 -0.15116841 0.66826123 2.8603192e-39
0.56695879 -0.15015055 0.66917992 3.320947e-39
0.56339067 -0.14989555 0.66728038 3.1365516e-39
0.56831217 -0.14912303 0.66613179 3.8741082e-39
0.57319587 -0.14902087 0.667171 9.3125195e-39
0.57723784 -0.14893836 0.66776228 1.2722638e-38
0.58079147 -0.14893308 0.66847813 1.216802e-38
0.44346574 -0.070784599 0.66795951 7.3763763e-39
0.44921607 -0.073710121 0.66793835 7.2867114e-39
0.43908605 -0.066270277 0.66849446 6.730281e-39
0.4409574 -0.068250172 0.66671371 6.6380854e-39
0.70768893 -0.065550186 0.66808021 1.0562883e-38
0.43643332 -0.062516607 0.66752517 6.0849116e-39
0.70449382 -0.062327135 0.66835576 6.7958267e-39
0.70566577 -0.063570514 0.66887063 5.7856363e-39
0.43436399 -0.057577252 0.66811329 5.5317378e-39
0.70152283 -0.057994384 0.66755229 6.9794977e-39
0.43381372 -0.051981192 0.66679049 8.39161e-39
0.69828081 -0.052798815 0.66721702 6.7958267e-39
0.43471059 -0.049471669 0.66635764 8.2083019e-39
0.43604696 -0.047141351 0.66749758 6.3662054e-39
0.69381934 -0.046265543 0.66653806 6.6121557e-39
0.69553149 -0.048680067 0.66776097 5.3264588e-39
0.43865988 -0.043127216 0.66785085 6.1821757e-39
0.4411965 -0.041113101 0.66767263 6.1821757e-39
0.69134581 -0.042752631 0.66775978 8.7243721e-39
0.44365621 -0.039364591 0.66673946 6.6427909e-39
0.44740295 -0.036815461 0.66740537 6.6424336e-39
0.68775749 -0.037616391 0.66732568 8.7243721e-39
0.45292601 -0.033009496 0.66728455 1.7640204e-39
0.45687297 -0.030248901 0.66762948 1.8475854e-39
0.68332338 -0.031195644 0.66772604 8.7243721e-39
0.68518448 -0.033908933 0.66833067 8.7243721e-39
0.45888758 -0.028835397 0.66842949 1.3927239e-39
0.46166494 -0.026763247 0.66802216 1.4859985e-39
0.68078542 -0.027550405 0.66785049 8.7243721e-39
0.46429443 -0.024663525 0.66787016 3.6922e-39
0.46701965 -0.02256 0.66758937 6.0892626e-39
0.47090775 -0.020459147 0.66818571 6.826822e-39
0.6776005 -0.023033397 0.66738898 8.7243721e-39
0.46415755 -0.015288046 0.66879445 5.3502612e-39
0.47410393 -0.019073568 0.66856098 7.1044935e-39
0.47776568 -0.01884287 0.66824734 7.381442e-39
0.4826878 -0.019382602 0.66871452 7.6580316e-39
0.67311966 -0.016729111 0.66704941 8.7243721e-39
0.67501771 -0.019413486 0.66758525 8.7243721e-39
0.66915447 -0.011035343 0.66790742 8.7243721e-39
0.6707837 -0.013439897 0.66699618 8.7243721e-39
0.66640335 -0.0069007259 0.66703033 8.7243721e-39
0.66341209 -0.0024606367 0.66729152 8.7243721e-39
0.65917206 0.0037241373 0.66808558 8.7243721e-39
0.66099608 0.0010734242 0.6673646 8.7243721e-39
0.65676922 0.007223051 0.66729969 8.7243721e-39
0.65297484 0.012470983 0.66807508 8.7243721e-39
0.64830327 0.018834265 0.66770554 8.7243721e-39
0.65040773 0.015946347 0.66749752 8.7243721e-39
0.64451432 0.024582373 0.66766578 8.8162076e-39
0.64610648 0.021999149 0.66716129 8.7243721e-39
0.6425488 0.02823071 0.66763091 8.8162076e-39
0.63947159 0.034299839 0.66649514 8.9080431e-39
0.64089435 0.032811053 0.66815299 8.9998786e-39
0.63842046 0.038068835 0.6671564 8.9998786e-39
0.64041227 0.03656511 0.66973478 8.9998786e-39
0.6383912 0.041678805 0.66945326 8.9998786e-39
0.45411861 0.049181957 0.66669357 5.8083247e-39
0.45625818 0.049252242 0.66592699 8.3898023e-39
0.64418018 0.046111472 0.66675198 8.7243721e-39
0.64565909 0.048683047 0.66896051 8.7243721e-39
0.4499366 0.054237314 0.66540289 7.9355518e-39
0.4504208 0.052351981 0.66799128 7.1033136e-39
0.64950126 0.052197181 0.66980606 8.7243721e-39
0.65215558 0.053478401 0.66683298 8.7243721e-39
0.45207462 0.057912156 0.6673184 8.2142757e-39
0.6548692 0.055838887 0.66768706 8.7243721e-39
0.65818089 0.058239605 0.66789061 8.7243721e-39
0.66007245 0.05950889 0.66579634 8.7243721e-39
0.45419019 0.060854036 0.66927361 8.3064685e-39
0.45674658 0.062794805 0.66675788 8.3064685e-39
0.66324919 0.061884496 0.66747159 8.7243721e-39
0.66639388 0.064047992 0.66660947 8.7243721e-39
0.4620946 0.067114063 0.66733909 8.3064685e-39
0.67192721 0.067731068 0.66705203 8.7243721e-39
0.46700633 0.071016386 0.66760981 8.3064685e-39
0.47187668 0.074195765 0.66801524 8.3064685e-39
0.67692918 0.070514694 0.66811091 8.7243721e-39
0.6812104 0.072466567 0.66739607 8.7243721e-39
0.4732075 0.075095326 0.66593999 8.3064685e-39
0.47734296 0.077718504 0.66756409 8.3064685e-39
0.48053226 0.079859078 0.66800517 8.3064685e-39
0.48292479 0.081470773 0.66835117 8.3064685e-39
0.48620912 0.083707236 0.6673668 8.398311e-39
0.4916558 0.08730498 0.66716015 9.8695385e-39
0.495626 0.089776747 0.66788793 9.1341034e-39
0.49835789 0.091543511 0.66650224 9.2259431e-39
0.50187188 0.093716048 0.66797066 8.3983096e-39
0.50390053 0.095039196 0.66500288 8.3983068e-39
0.50725913 0.097122826 0.66806883 8.3983054e-39
0.5132122 0.10089992 0.66743052 8.5823477e-39
0.51762116 0.10350791 0.66774595 9.5936592e-39
0.52266371 0.10623495 0.66722542 9.2259403e-39
0.52764904 0.10896906 0.66683644 8.3983082e-39
0.53175855 0.10778536 0.66617239 9.1341034e-39
0.53210932 0.11136892 0.66723984 8.3983054e-39
0.53789896 0.11444343 0.66718036 8.3064685e-39
0.54285634 0.11712547 0.66832489 8.3061098e-39
0.6089474 0.12998801 0.66765249 1.4715273e-39
0.60791326 0.13244672 0.66716331 2.4838688e-39
0.60630846 0.1381769 0.66693181 2.3895264e-39
0.60601485 0.14313161 0.66728592 7.8301503e-39
0.60576099 0.14808983 0.66759211 1.1801041e-38
0.6083529 0.15258494 0.66706884 1.1801041e-38
0.61068106 0.15523401 0.66816956 1.1801041e-38
0.44799221 0.19360088 0.66724688 1.179835e-38
0.45215279 0.19154532 0.66773021 1.2075303e-38
0.4560467 0.19167466 0.66896456 1.3551876e-38
0.44240519 0.19812882 0.66837031 1.179835e-38
0.4466356 0.19511856 0.66541636 1.179835e-38
0.43839419 0.20358907 0.66784477 1.179835e-38
0.44015509 0.20116118 0.66669881 1.179835e-38
0.4346548 0.20914473 0.66826791 9.863377e-39
0.43617177 0.20680861 0.6679666 1.179835e-38
0.43277481 0.21218713 0.66722775 3.4123972e-39
0.42957023 0.21925774 0.66831475 3.6889757e-39
0.43075624 0.21679141 0.66719055 3.136176e-39
0.42863798 0.22246571 0.66673207 3.0443419e-39
0.42637056 0.22782674 0.66739094 5.163342e-39
0.42582172 0.23188961 0.6674037 8.2046249e-39
0.42910111 0.23504815 0.66775805 6.2692874e-39
0.43266344 0.2380323 0.66711617 5.992346e-39
0.43720973 0.24150467 0.66757679 6.4533129e-39
0.44184723 0.2447909 0.66794384 8.2042676e-39
0.44455749 0.24662484 0.66885674 1.0323984e-38
0.45496416 -0.40517533 0.67070985 6.2448278e-39
0.45509616 -0.40579808 0.67317444 6.2448278e-39
0.45165086 -0.40000767 0.67338288 6.2448278e-39
0.45156515 -0.39942634 0.67084157 6.2448278e-39
0.44843328 -0.39420101 0.67191315 6.7994323e-39
0.44532987 -0.38876668 0.67162639 7.9075623e-39
0.44217616 -0.3832975 0.67145145 9.1057327e-39
0.43901515 -0.37783515 0.67131841 9.656031e-39
0.4362002 -0.37323004 0.67333406 1.0020505e-38
0.43340415 -0.36813828 0.67264569 9.7449981e-39
0.43055248 -0.36300492 0.67207372 1.0114497e-38
0.42792761 -0.35835662 0.67249155 1.057655e-38
0.42535228 -0.35376689 0.67284989 1.0853494e-38
0.42208472 -0.34772801 0.67261976 1.0949638e-38
0.41865686 -0.34127039 0.67360938 1.0391798e-38
0.42048234 -0.34460574 0.67178047 1.0488663e-38
0.41688141 -0.33772984 0.67173052 1.0208482e-38
0.41427568 -0.33287793 0.67314565 1.0675556e-38
0.41210952 -0.3287155 0.67289162 1.0769904e-38
0.40852466 -0.32191551 0.67291886 7.7228151e-39
0.41011769 -0.32499695 0.67371351 8.5568749e-39
0.40617213 -0.31732875 0.67167073 6.3377408e-39
0.40336561 -0.31208238 0.67217875 6.2448278e-39
0.40120381 -0.30796701 0.67199808 6.2448278e-39
0.63823748 -0.30500174 0.67220461 2.12165e-39
0.3982048 -0.30245763 0.67337692 6.2448278e-39
0.63416469 -0.30067724 0.67170185 2.8595961e-39
0.63619822 -0.30283648 0.67195284 2.7673977e-39
0.39715564 -0.29647541 0.67255354 8.0080634e-39
0.62908524 -0.2952472 0.67495507 2.8599577e-39
0.63112581 -0.29745054 0.67132676 2.8599577e-39
0.39950749 -0.29412672 0.67235434 6.3373835e-39
0.4015021 -0.29194048 0.67237109 6.2448278e-39
0.40815306 -0.29375479 0.67104167 6.7072464e-39
0.62667048 -0.29265431 0.67260289 2.8599577e-39
0.40400469 -0.28919739 0.67239267 6.2448278e-39
0.40651986 -0.2864404 0.67241508 7.996881e-39
0.62360752 -0.28774661 0.67229784 2.8599577e-39
0.40906402 -0.283562 0.67286229 7.2593258e-39
0.41105852 -0.28155506 0.67203033 7.078187e-39
0.61919856 -0.2802273 0.67100841 2.8599577e-39
0.62097412 -0.28315753 0.67236394 2.8599577e-39
0.41366473 -0.27926937 0.67231667 1.096804e-38
0.4177078 -0.27767044 0.67255223 6.9863529e-39
0.42245513 -0.2758486 0.67262441 6.2448278e-39
0.61766326 -0.27736056 0.67280972 2.9517932e-39
0.4249959 -0.27486378 0.67210776 6.2448278e-39
0.4277809 -0.27380541 0.67274666 8.9314602e-39
0.43270525 -0.27166957 0.67220938 7.9119077e-39
0.43608963 -0.2703937 0.67352068 6.2448292e-39
0.61417294 -0.27159348 0.67177016 8.8511714e-39
0.61572564 -0.27403033 0.67251492 3.3205715e-39
0.43793479 -0.26867014 0.67204756 9.3006015e-39
0.44192159 -0.2663295 0.67232394 7.0785485e-39
0.6095376 -0.26571032 0.67340291 1.1708845e-38
0.61224294 -0.26897627 0.67276812 1.1524457e-38
0.60452271 -0.26021051 0.67037982 1.1431898e-38
0.6069997 -0.26280814 0.67256808 1.1708845e-38
0.60257596 -0.25718087 0.6732384 9.1237576e-39
0.59892011 -0.25281507 0.67198372 5.9836944e-39
0.59420067 -0.24670614 0.67256868 5.9836944e-39
0.59651244 -0.24947107 0.67361677 5.9836944e-39
0.58892924 -0.24006815 0.67129767 5.9836944e-39
0.59117377 -0.24279357 0.6724062 5.9836944e-39
0.58741659 -0.23786607 0.67252046 5.9836944e-39
0.5829221 -0.23206197 0.67228866 5.9836944e-39
0.57914984 -0.2270492 0.67312837 5.9836944e-39
0.57383865 -0.22119302 0.67120427 5.9836944e-39
0.57616276 -0.22356726 0.67257816 5.9836944e-39
0.5715009 -0.21782389 0.67348135 5.983693e-39
0.56468248 -0.21061218 0.67210972 6.0762515e-39
0.5674566 -0.21350819 0.67243242 5.9836944e-39
0.56196296 -0.20774698 0.67173374 7.46243e-39
0.55726749 -0.20228305 0.67316997 1.1708485e-38
0.55250072 -0.19706319 0.67241389 7.9295837e-39
0.54852247 -0.19235443 0.67247623 2.8599577e-39
0.54627562 -0.18778975 0.67230743 2.8599577e-39
0.54416782 -0.18238591 0.67221099 2.8599577e-39
0.54505825 -0.1844912 0.6731891 2.8599577e-39
0.54251915 -0.17781453 0.67268634 2.8599577e-39
0.5398789 -0.17072304 0.67493343 2.8599577e-39
0.54078913 -0.17318854 0.67214996 2.8599577e-39
0.53875899 -0.16775517 0.67254514 2.8599577e-39
0.53810239 -0.1637744 0.67213118 2.8599577e-39
0.54133952 -0.16100433 0.67297059 2.8599577e-39
0.54403841 -0.15901008 0.67325056 2.8599577e-39
0.54744971 -0.15669239 0.67312306 2.8599577e-39
0.55032516 -0.15509932 0.67398351 2.8599577e-39
0.55336559 -0.15344207 0.67309225 2.8599577e-39
0.55744749 -0.15150258 0.67293561 2.8599577e-39
0.56098652 -0.15023074 0.67429161 2.8599577e-39
0.57724512 -0.14982578 0.67035007 1.3183975e-38
0.45371109 -0.075174108 0.67272991 8.3919729e-39
0.44715786 -0.072166435 0.67131811 7.1941542e-39
0.45039225 -0.073422059 0.67274678 7.1019572e-39
0.43848267 -0.065666214 0.67265821 6.8228367e-39
0.44217882 -0.069328874 0.67279625 6.7306425e-39
0.70923346 -0.065434702 0.67165792 4.5924951e-39
0.71217608 -0.067316078 0.67354912 8.1038534e-39
0.43494624 -0.0606815 0.67139429 5.9005203e-39
0.43622857 -0.062492024 0.67261344 4.5175859e-39
0.70727259 -0.062566735 0.67237425 7.7141817e-39
0.4346194 -0.057651002 0.67329508 5.0707596e-39
0.70287168 -0.057842962 0.67174822 6.7958267e-39
0.70589787 -0.059704557 0.67378008 4.9591168e-39
0.43401271 -0.052903712 0.67206657 8.482721e-39
0.69830853 -0.052428849 0.67241901 6.3366492e-39
0.43487358 -0.048999958 0.67421615 7.7469609e-39
0.43632442 -0.046940926 0.67177713 6.6424294e-39
0.69404435 -0.046617165 0.67189294 8.6325366e-39
0.69526148 -0.048399676 0.67319453 7.8978527e-39
0.43873605 -0.043298975 0.67259532 6.1821757e-39
0.44146037 -0.040860452 0.67263883 6.1821757e-39
0.68992084 -0.040942408 0.67491537 8.7243721e-39
0.69161218 -0.043256987 0.67263448 8.7243721e-39
0.44319096 -0.039522506 0.67246425 6.1821757e-39
0.44728574 -0.036847424 0.67245048 5.7208416e-39
0.68745959 -0.037393868 0.67236727 8.7243721e-39
0.45260394 -0.033513125 0.67184097 1.7568289e-39
0.45606172 -0.031011542 0.67162377 1.6639144e-39
0.68367088 -0.031915296 0.67251205 8.7243721e-39
0.45858288 -0.029078439 0.67382365 2.3060384e-39
0.46197969 -0.026578318 0.67287374 2.0316151e-39
0.67982727 -0.02646292 0.67273819 8.7243721e-39
0.68111086 -0.028276809 0.6726563 8.7243721e-39
0.46495289 -0.024522815 0.67217857 4.0598994e-39
0.46783301 -0.0224411 0.67165816 5.9052315e-39
0.47171283 -0.020298539 0.6735937 6.3665684e-39
0.67730242 -0.022863472 0.6724332 8.7243721e-39
0.45697919 -0.019597365 0.67238653 7.4729159e-39
0.6735065 -0.017477812 0.67221957 8.7243721e-39
0.66918415 -0.011218401 0.67259789 8.7243721e-39
0.67095733 -0.013871791 0.67325062 8.7243721e-39
0.66645485 -0.0071442784 0.67221725 8.7243721e-39
0.66354799 -0.0028897654 0.6728133 8.7243721e-39
0.65900803 0.0037958464 0.6734159 8.7243721e-39
0.66081774 0.0011559622 0.67271537 8.7243721e-39
0.65665835 0.0072799711 0.67257851 8.7243721e-39
0.65324438 0.012156929 0.67284238 8.7243721e-39
0.64849424 0.018556735 0.6722182 8.7243721e-39
0.65042675 0.01596855 0.67263252 8.7243721e-39
0.64407068 0.024570964 0.67332268 8.7243721e-39
0.64594954 0.021999186 0.6724968 8.7243721e-39
0.64377773 0.027576284 0.67172325 8.9080431e-39
0.6424188 0.033141639 0.67132741 8.9080431e-39
0.63965374 0.039970368 0.67059618 8.9998786e-39
0.64072782 0.037914433 0.67195189 8.9080431e-39
0.63931739 0.04279834 0.67183572 8.9998786e-39
0.64015841 0.041661017 0.67259747 8.9998786e-39
0.46298647 0.049233947 0.67394662 3.5956296e-39
0.63940191 0.045052391 0.67345339 9.0938749e-39
0.64199615 0.046803605 0.67394751 9.1835496e-39
0.45081696 0.052624304 0.6720553 7.0107677e-39
0.64815664 0.051245369 0.6725961 8.7243721e-39
0.65217495 0.053909399 0.67325711 8.7243721e-39
0.45102659 0.057436526 0.67225152 8.3061098e-39
0.6548714 0.055714358 0.67283851 8.7243721e-39
0.65859967 0.058419518 0.67258257 8.7243721e-39
0.45416033 0.060719296 0.67334116 8.3064685e-39
0.45700371 0.063036926 0.67278677 8.3064685e-39
0.66350716 0.062045004 0.6723451 8.7243721e-39
0.66718352 0.064780153 0.67219663 8.7243721e-39
0.6816473 0.06096663 0.67151904 8.8169279e-39
0.45964181 0.065296866 0.67391574 8.3064685e-39
0.46172005 0.066923589 0.67195135 8.3064685e-39
0.46533197 0.069986463 0.67291546 8.3064685e-39
0.66963971 0.066612557 0.67210531 8.7243721e-39
0.67343777 0.068503983 0.67186433 8.7243721e-39
0.46783549 0.071571842 0.67298263 8.3064685e-39
0.4716689 0.07399857 0.67233509 8.3064685e-39
0.67813468 0.070427105 0.67197281 8.7243721e-39
0.6821155 0.07186725 0.67287505 8.7243721e-39
0.47669619 0.07720767 0.67254776 8.3064685e-39
0.48032492 0.079643123 0.67230523 8.3064685e-39
0.48271891 0.08124961 0.67264467 8.3064685e-39
0.48637205 0.083711289 0.67242622 8.3983082e-39
0.49153036 0.087005429 0.67264205 9.9617355e-39
0.49551785 0.089542575 0.67201483 9.3177814e-39
0.49800241 0.091194101 0.67231226 9.5018181e-39
0.50218654 0.093964517 0.67278463 8.3983068e-39
0.5074169 0.097338855 0.67310423 8.3983054e-39
0.51116288 0.099722728 0.67167228 8.3983082e-39
0.51365912 0.10132511 0.67336065 8.6741874e-39
0.51815677 0.1039409 0.67355263 9.5018195e-39
0.52197731 0.10594508 0.6708135 9.4099784e-39
0.52641845 0.10848985 0.67247736 8.3983068e-39
0.52957475 0.11022513 0.67334092 8.3064685e-39
0.53317642 0.11213558 0.67231393 8.3064685e-39
0.5368045 0.11406031 0.67128605 8.3064685e-39
0.54167223 0.11671816 0.67252719 8.3064685e-39
0.60765356 0.13284527 0.67221576 6.0611582e-39
0.60640866 0.13775058 0.67198616 6.1529937e-39
0.60624337 0.14271331 0.67218429 8.2824895e-39
0.60618538 0.14769608 0.67225367 1.1801041e-38
0.60746461 0.152015 0.67201179 1.1801041e-38
0.61056972 0.15470013 0.67346454 1.1801041e-38
0.61079687 0.15500484 0.670618 1.1801041e-38
0.44749886 0.19361153 0.67263615 1.179835e-38
0.45178875 0.19187702 0.67316067 1.2812859e-38
0.45791009 0.19289649 0.67267573 1.2261146e-38
0.44277927 0.19736306 0.67225045 1.179835e-38
0.44546825 0.19510901 0.67408484 1.179835e-38
0.43871769 0.2028852 0.67271489 1.179835e-38
0.44047147 0.20046437 0.67158771 1.179835e-38
0.43465272 0.20930153 0.67323899 1.0324341e-38
0.43620524 0.20682527 0.67242712 1.179835e-38
0.43248895 0.21256971 0.67284435 4.3339653e-39
0.42893982 0.21790628 0.67347038 5.2555335e-39
0.43024364 0.2157899 0.67259967 3.6889757e-39
0.42728689 0.22308479 0.67268729 5.4399191e-39
0.42635238 0.2275774 0.67248374 8.3890092e-39
0.42650545 0.23193178 0.67222404 8.8496104e-39
0.43208548 0.23697516 0.67217875 6.1774589e-39
0.43561667 0.23968755 0.67296702 6.4536857e-39
0.423513 0.24277885 0.67010105 8.8492502e-39
0.43808302 0.24164256 0.67287499 6.9142897e-39
