# .PCD v0.7 - Point Cloud Data file format
VERSION 0.7
FIELDS x y z rgb
SIZE 4 4 4 4
TYPE F F F F
COUNT 1 1 1 1
WIDTH 1024
HEIGHT 1
VIEWPOINT 0 0 0 1 0 0 0
POINTS 1024
DATA ascii
0.86759907 0.11709882 0.61000216 1.0786889e-38
0.55336589 0.12314024 0.61000001 1.0786889e-38
0.55737031 0.12234383 0.61000007 1.0786889e-38
0.56220531 0.12250574 0.61000001 1.0786889e-38
0.56748825 0.12343246 0.61000007 1.0786889e-38
0.57226437 0.1240971 0.61000007 1.0786889e-38
0.57569826 0.124939 0.61000013 1.0786889e-38
0.60295284 0.12132907 0.61308014 1.0786889e-38
0.72836661 0.12009315 0.61000115 1.0786889e-38
0.73291349 0.12183863 0.61000121 1.0786889e-38
0.73748875 0.12263545 0.61000115 1.0786889e-38
0.74248898 0.12259982 0.61000127 1.0786889e-38
0.74805617 0.12240859 0.61000127 1.0786889e-38
0.7533983 0.12277842 0.61000133 1.0786889e-38
0.75742942 0.12208578 0.61000139 1.0786889e-38
0.76148558 0.12236389 0.61000139 1.0786889e-38
0.76692724 0.12273698 0.61000139 1.0786889e-38
0.77213436 0.12270095 0.61000144 1.0786889e-38
0.77793288 0.1225062 0.6100015 1.0786889e-38
0.78377706 0.12230901 0.61000156 1.0786889e-38
0.78769761 0.12217734 0.61000162 1.0786889e-38
0.79192394 0.12246149 0.61000156 1.0786889e-38
0.79759473 0.12284274 0.61000162 1.0786889e-38
0.80330861 0.12222464 0.61000168 1.0786889e-38
0.8076213 0.12251173 0.61000174 1.0786889e-38
0.81196165 0.12280064 0.61000168 1.0786889e-38
0.81778592 0.12217645 0.6100018 1.0786889e-38
0.822182 0.12246615 0.61000186 1.0786889e-38
0.82660651 0.12275773 0.6100018 1.0786889e-38
0.83254415 0.12212732 0.61000192 1.0786889e-38
0.83702624 0.12241971 0.61000192 1.0786889e-38
0.84153748 0.12271399 0.61000192 1.0786889e-38
0.84789574 0.12250914 0.61000198 1.0786889e-38
0.85216218 0.12237233 0.61000204 1.0786889e-38
0.85676289 0.1226694 0.61000204 1.0786889e-38
0.86293745 0.12202614 0.6100021 1.0786889e-38
0.86759907 0.12232403 0.61000216 1.0786889e-38
0.55336589 0.12815545 0.61000001 1.0786889e-38
0.55737025 0.12737505 0.61000007 1.0786889e-38
0.56240767 0.12723607 0.61000007 1.0786889e-38
0.56748825 0.12765881 0.61000007 1.0786889e-38
0.5726071 0.12808473 0.61000007 1.0786889e-38
0.57802916 0.12704401 0.61000013 1.0786889e-38
0.58276337 0.12756145 0.61000019 1.0786889e-38
0.58716589 0.12843777 0.61000019 1.0786889e-38
0.59244776 0.12887375 0.61000019 1.0786889e-38
0.59670103 0.12836009 0.61000025 1.0786889e-38
0.60746527 0.12880549 0.61000037 1.0786889e-38
0.61291271 0.12968746 0.61000037 1.0786889e-38
0.72419953 0.12616704 0.61138225 1.0786889e-38
0.73748875 0.12742761 0.61000121 1.0786889e-38
0.74301732 0.12725475 0.61000127 1.0786889e-38
0.74805617 0.12723593 0.61000127 1.0786889e-38
0.75339836 0.12762353 0.61000133 1.0786889e-38
0.75742942 0.12791602 0.61000139 1.0786889e-38
0.76148564 0.12723592 0.61000139 1.0786889e-38
0.76692724 0.12762713 0.61000144 1.0786889e-38
0.77268463 0.12745146 0.61000156 1.0786889e-38
0.77793288 0.12743296 0.6100015 1.0786889e-38
0.78349775 0.12782933 0.61000156 1.0786889e-38
0.78769761 0.12713662 0.61000162 1.0786889e-38
0.79192388 0.12743482 0.61000156 1.0786889e-38
0.79759467 0.12783495 0.61000168 1.0786889e-38
0.80330855 0.12723587 0.61000174 1.0786889e-38
0.8076213 0.12753731 0.61000174 1.0786889e-38
0.81196165 0.12784068 0.61000168 1.0786889e-38
0.81778586 0.12723586 0.6100018 1.0786889e-38
0.822182 0.1275402 0.61000186 1.0786889e-38
0.82660651 0.12784651 0.6100018 1.0786889e-38
0.83254415 0.12723584 0.61000186 1.0786889e-38
0.8370263 0.12754315 0.61000192 1.0786889e-38
0.84123594 0.12742031 0.61000192 1.0786889e-38
0.84759176 0.12723584 0.61000198 1.0786889e-38
0.85216224 0.12754616 0.61000204 1.0786889e-38
0.85676289 0.12785853 0.61000204 1.0786889e-38
0.86293745 0.12723583 0.6100021 1.0786889e-38
0.86759907 0.12754923 0.61000216 1.0786889e-38
0.55336589 0.13317068 0.61000001 1.0786889e-38
0.55762106 0.13207929 0.61000007 1.0786889e-38
0.56240767 0.1322874 0.61000007 1.0786889e-38
0.56748825 0.13273042 0.61000007 1.0786889e-38
0.5726071 0.1331768 0.61000007 1.0786889e-38
0.57777023 0.1319228 0.61000013 1.0786889e-38
0.58297235 0.1323695 0.61000019 1.0786889e-38
0.58716589 0.1327296 0.61000019 1.0786889e-38
0.59218252 0.13294458 0.61000019 1.0786889e-38
0.59777021 0.13190936 0.61000019 1.0786889e-38
0.60206097 0.13227208 0.61000031 1.0786889e-38
0.6074658 0.13272899 0.61000031 1.0786889e-38
0.61269391 0.13282049 0.61000037 1.0786889e-38
0.61620265 0.1317122 0.61000037 1.0786889e-38
0.73880005 0.13232017 0.61000127 1.0786889e-38
0.74275321 0.13262278 0.61000127 1.0786889e-38
0.74779004 0.13262182 0.61000127 1.0786889e-38
0.7533983 0.13246864 0.61000133 1.0786889e-38
0.75742948 0.13277456 0.61000139 1.0786889e-38
0.76148558 0.13210794 0.61000139 1.0786889e-38
0.76692724 0.13251726 0.61000139 1.0786889e-38
0.7724095 0.13292962 0.6100015 1.0786889e-38
0.77793288 0.13235974 0.6100015 1.0786889e-38
0.78349775 0.13277462 0.61000156 1.0786889e-38
0.78769761 0.13209589 0.61000162 1.0786889e-38
0.79192382 0.13240816 0.61000156 1.0786889e-38
0.79759461 0.13282716 0.61000162 1.0786889e-38
0.80330861 0.13224711 0.61000174 1.0786889e-38
0.8076213 0.13256291 0.61000174 1.0786889e-38
0.81196165 0.13288072 0.61000168 1.0786889e-38
0.81778592 0.1322953 0.6100018 1.0786889e-38
0.822182 0.13261425 0.61000186 1.0786889e-38
0.82631075 0.13250634 0.6100018 1.0786889e-38
0.83254409 0.13234439 0.61000192 1.0786889e-38
0.83702624 0.13266662 0.61000192 1.0786889e-38
0.84183896 0.13239539 0.61000192 1.0786889e-38
0.84759182 0.13239446 0.61000198 1.0786889e-38
0.85216218 0.13271999 0.61000204 1.0786889e-38
0.85676831 0.13203129 0.61095899 1.0786889e-38
0.86293745 0.13244551 0.61000216 1.0786889e-38
0.86759907 0.13277444 0.61000216 1.0786889e-38
0.55336589 0.13818589 0.61000001 1.0786889e-38
0.55737031 0.13687934 0.61000007 1.0786889e-38
0.56240767 0.13733873 0.61000007 1.0786889e-38
0.56748825 0.13780205 0.61000007 1.0786889e-38
0.57240146 0.13791038 0.61000007 1.0786889e-38
0.57777017 0.13703549 0.61000013 1.0786889e-38
0.58297235 0.13750298 0.61000019 1.0786889e-38
0.58716589 0.13787983 0.61000019 1.0786889e-38
0.59244806 0.13749157 0.61000019 1.0786889e-38
0.59777021 0.13710193 0.61000019 1.0786889e-38
0.60206097 0.13748179 0.61000019 1.0786889e-38
0.6074658 0.1379603 0.61000037 1.0786889e-38
0.61313158 0.13706049 0.61000037 1.0786889e-38
0.74319345 0.13714728 0.61000127 1.0786889e-38
0.74832231 0.13729751 0.61000127 1.0786889e-38
0.75339836 0.13731375 0.61000133 1.0786889e-38
0.75742942 0.13763309 0.61000139 1.0786889e-38
0.76121449 0.1375428 0.61000139 1.0786889e-38
0.7669273 0.13740741 0.61000139 1.0786889e-38
0.7724095 0.13783804 0.61000144 1.0786889e-38
0.77793288 0.1372865 0.6100015 1.0786889e-38
0.78349775 0.13771991 0.61000156 1.0786889e-38
0.78769761 0.13705516 0.61000162 1.0786889e-38
0.79192388 0.13738151 0.61000156 1.0786889e-38
0.79759467 0.13781938 0.61000162 1.0786889e-38
0.80330855 0.13725834 0.61000174 1.0786889e-38
0.8076213 0.13758849 0.61000174 1.0786889e-38
0.81167161 0.13749495 0.61000168 1.0786889e-38
0.81778586 0.1373547 0.6100018 1.0786889e-38
0.822182 0.13768831 0.61000186 1.0786889e-38
0.82690227 0.13743526 0.6100018 1.0786889e-38
0.83254409 0.13745293 0.61000192 1.0786889e-38
0.8370263 0.13779007 0.61000192 1.0786889e-38
0.84153742 0.13710171 0.61000198 1.0786889e-38
0.84759182 0.13755308 0.61000198 1.0786889e-38
0.85216224 0.13789383 0.61000204 1.0786889e-38
0.85676289 0.137199 0.61000204 1.0786889e-38
0.86293745 0.1376552 0.6100021 1.0786889e-38
0.86759907 0.13695461 0.61000216 1.0786889e-38
0.55336589 0.14320111 0.61000001 1.0786889e-38
0.55737025 0.14191055 0.61000007 1.0786889e-38
0.56240767 0.14239006 0.61000007 1.0786889e-38
0.56748819 0.14287369 0.61000007 1.0786889e-38
0.5726071 0.14251159 0.61000007 1.0786889e-38
0.57777017 0.14214818 0.61000013 1.0786889e-38
0.58297235 0.14263643 0.61000019 1.0786889e-38
0.58716589 0.14303003 0.61000019 1.0786889e-38
0.5927127 0.14204165 0.61000019 1.0786889e-38
0.59777021 0.14229448 0.61000019 1.0786889e-38
0.60206097 0.14269149 0.61000025 1.0786889e-38
0.60719436 0.14294814 0.61000037 1.0786889e-38
0.61291271 0.14194456 0.61000037 1.0786889e-38
0.74407405 0.14138924 0.61000127 1.0786889e-38
0.74805617 0.1426834 0.61000127 1.0786889e-38
0.7531302 0.14271763 0.61000133 1.0786889e-38
0.75742948 0.14249161 0.61000139 1.0786889e-38
0.76175666 0.14226361 0.61000139 1.0786889e-38
0.76692724 0.14229757 0.61000144 1.0786889e-38
0.7724095 0.14274642 0.6100015 1.0786889e-38
0.77793282 0.14221328 0.6100015 1.0786889e-38
0.78349769 0.14266521 0.61000156 1.0786889e-38
0.78769761 0.14201443 0.61000162 1.0786889e-38
0.79192382 0.14235485 0.61000162 1.0786889e-38
0.79759473 0.1428116 0.61000162 1.0786889e-38
0.80330861 0.14226957 0.61000168 1.0786889e-38
0.8076213 0.14261407 0.61000174 1.0786889e-38
0.81225175 0.14237855 0.61000168 1.0786889e-38
0.81778592 0.14241411 0.61000174 1.0786889e-38
0.822182 0.14276235 0.61000186 1.0786889e-38
0.82660651 0.14209507 0.6100018 1.0786889e-38
0.83254409 0.14256147 0.61000186 1.0786889e-38
0.83702624 0.14291352 0.61000192 1.0786889e-38
0.84153742 0.14224017 0.61000198 1.0786889e-38
0.84759188 0.1427117 0.61000198 1.0786889e-38
0.85216224 0.14203289 0.61000204 1.0786889e-38
0.85676289 0.14238814 0.61000204 1.0786889e-38
0.86293745 0.14286491 0.61000216 1.0786889e-38
0.86759907 0.14217983 0.61000216 1.0786889e-38
0.55336589 0.14821632 0.61000001 1.0786889e-38
0.55737025 0.14694177 0.61000007 1.0786889e-38
0.56240767 0.1474414 0.61000007 1.0786889e-38
0.56748825 0.1479453 0.61000007 1.0786889e-38
0.57262045 0.14687814 0.6104995 1.0786889e-38
0.57777017 0.14726086 0.61000013 1.0786889e-38
0.58297235 0.14776991 0.61000019 1.0786889e-38
0.58695555 0.14781603 0.61000019 1.0786889e-38
0.59244776 0.14697333 0.61000019 1.0786889e-38
0.59777021 0.14748706 0.61000019 1.0786889e-38
0.60206097 0.14790119 0.61000031 1.0786889e-38
0.6074661 0.14754994 0.61000037 1.0786889e-38
0.61291271 0.14719759 0.61000037 1.0786889e-38
0.61620265 0.14926617 0.61000037 1.0786889e-38
0.74938679 0.14665952 0.61000127 1.0786889e-38
0.75366634 0.14741425 0.61000133 1.0786889e-38
0.75742942 0.14735015 0.61000139 1.0786889e-38
0.76148558 0.14769845 0.61000139 1.0786889e-38
0.76692724 0.14718769 0.61000144 1.0786889e-38
0.77240956 0.1476548 0.61000144 1.0786889e-38
0.77793288 0.14714007 0.6100015 1.0786889e-38
0.78349775 0.1476105 0.61000156 1.0786889e-38
0.78769755 0.14796555 0.61000162 1.0786889e-38
0.79192388 0.14732818 0.61000156 1.0786889e-38
0.79759467 0.1478038 0.61000162 1.0786889e-38
0.80330867 0.14728081 0.61000162 1.0786889e-38
0.8076213 0.14763965 0.61000174 1.0786889e-38
0.81167156 0.14757307 0.61000168 1.0786889e-38
0.81778586 0.14747354 0.6100018 1.0786889e-38
0.822182 0.14783639 0.61000186 1.0786889e-38
0.82660651 0.14718385 0.6100018 1.0786889e-38
0.83254403 0.14766999 0.61000186 1.0786889e-38
0.83702624 0.14701229 0.61000192 1.0786889e-38
0.84153748 0.14737864 0.61000192 1.0786889e-38
0.84759182 0.14787032 0.61000198 1.0786889e-38
0.85216218 0.14720672 0.61000204 1.0786889e-38
0.85676283 0.14757729 0.61000204 1.0786889e-38
0.86293745 0.14703268 0.61000216 1.0786889e-38
0.86759907 0.14740503 0.61000216 1.0786889e-38
0.55336589 0.15323156 0.61000001 1.0786889e-38
0.55737025 0.15197298 0.61000007 1.0786889e-38
0.56240767 0.15249272 0.61000007 1.0786889e-38
0.56748825 0.15301694 0.61000007 1.0786889e-38
0.5726071 0.15184772 0.61000007 1.0786889e-38
0.57777017 0.15237357 0.61000013 1.0786889e-38
0.58297235 0.15290338 0.61000019 1.0786889e-38
0.58716589 0.15247141 0.61000019 1.0786889e-38
0.59244776 0.15214466 0.61000019 1.0786889e-38
0.59777021 0.15267962 0.61000019 1.0786889e-38
0.60206097 0.15311091 0.61000019 1.0786889e-38
0.60773695 0.15215492 0.61000037 1.0786889e-38
0.61291271 0.15245067 0.61000037 1.0786889e-38
0.61730415 0.15288621 0.61000037 1.0786889e-38
0.62061614 0.15497597 0.61000043 1.0786889e-38
0.7536664 0.15245497 0.61000133 1.0786889e-38
0.75742948 0.15220867 0.61000139 1.0786889e-38
0.76148564 0.15257047 0.61000139 1.0786889e-38
0.76692724 0.15207784 0.61000139 1.0786889e-38
0.7724095 0.1525632 0.6100015 1.0786889e-38
0.77765572 0.15263313 0.6100015 1.0786889e-38
0.78349775 0.15255579 0.61000156 1.0786889e-38
0.78769755 0.15292484 0.61000162 1.0786889e-38
0.79192394 0.15230151 0.61000156 1.0786889e-38
0.79759461 0.15279602 0.61000162 1.0786889e-38
0.80330861 0.15229203 0.61000168 1.0786889e-38
0.80762142 0.15266526 0.61000168 1.0786889e-38
0.81225175 0.15246056 0.61000168 1.0786889e-38
0.81778592 0.15253295 0.6100018 1.0786889e-38
0.822182 0.15291044 0.61000186 1.0786889e-38
0.82660651 0.15227261 0.6100018 1.0786889e-38
0.83254409 0.15277854 0.61000192 1.0786889e-38
0.8370263 0.15213573 0.61000192 1.0786889e-38
0.84153748 0.1525171 0.61000198 1.0786889e-38
0.84728783 0.15259014 0.61000198 1.0786889e-38
0.85216224 0.15238054 0.61000204 1.0786889e-38
0.85676289 0.15276642 0.61000204 1.0786889e-38
0.86293745 0.15224235 0.6100021 1.0786889e-38
0.86759907 0.15263024 0.61000216 1.0786889e-38
0.55336589 0.15824679 0.61000001 1.0786889e-38
0.55737019 0.15700421 0.61000007 1.0786889e-38
0.56240767 0.15754406 0.61000007 1.0786889e-38
0.56723309 0.15784955 0.61000007 1.0786889e-38
0.5726071 0.15693979 0.61000007 1.0786889e-38
0.57777011 0.15748625 0.61000013 1.0786889e-38
0.58297235 0.15803684 0.61000019 1.0786889e-38
0.58737624 0.157129 0.61000019 1.0786889e-38
0.59244776 0.15731595 0.61000019 1.0786889e-38
0.59777021 0.1578722 0.61000019 1.0786889e-38
0.60184574 0.15795051 0.61000025 1.0786889e-38
0.6074658 0.15714172 0.61000031 1.0786889e-38
0.61291271 0.15770371 0.61000037 1.0786889e-38
0.61708391 0.15778239 0.61000037 1.0786889e-38
0.62172508 0.15773155 0.61000043 1.0786889e-38
0.62729454 0.15830249 0.61000043 1.0786889e-38
0.63290787 0.15887792 0.61000049 1.0786889e-38
0.75384516 0.15802759 0.61000133 1.0786889e-38
0.75742942 0.15706721 0.61000139 1.0786889e-38
0.76148558 0.15744253 0.61000139 1.0786889e-38
0.76665419 0.15752916 0.61000139 1.0786889e-38
0.77240956 0.15747158 0.61000144 1.0786889e-38
0.77821004 0.15741266 0.6100015 1.0786889e-38
0.78349775 0.1575011 0.61000156 1.0786889e-38
0.78769755 0.15788411 0.61000162 1.0786889e-38
0.79192388 0.15727486 0.61000156 1.0786889e-38
0.79759467 0.15778822 0.61000168 1.0786889e-38
0.80330867 0.15730327 0.61000162 1.0786889e-38
0.80762142 0.15769084 0.61000168 1.0786889e-38
0.81167161 0.15765122 0.61000168 1.0786889e-38
0.81778586 0.15759236 0.6100018 1.0786889e-38
0.822182 0.1579845 0.61000186 1.0786889e-38
0.82660657 0.1573614 0.6100018 1.0786889e-38
0.83224601 0.1574516 0.61000192 1.0786889e-38
0.83702624 0.1572592 0.61000192 1.0786889e-38
0.84153748 0.15765557 0.61000192 1.0786889e-38
0.84789574 0.15759461 0.61000198 1.0786889e-38
0.85216218 0.15755437 0.61000204 1.0786889e-38
0.85645533 0.15751322 0.61000204 1.0786889e-38
0.86293745 0.15745205 0.61000216 1.0786889e-38
0.86759907 0.15785545 0.61000216 1.0786889e-38
0.33842841 0.16043672 0.61360025 1.0694693e-38
0.55336589 0.16326201 0.61000001 1.0786889e-38
0.55737025 0.16203539 0.61000007 1.0786889e-38
0.56240767 0.16259539 0.61000007 1.0786889e-38
0.56748819 0.16259575 0.61000007 1.0786889e-38
0.5726071 0.16203186 0.61000007 1.0786889e-38
0.57777017 0.16259894 0.61000013 1.0786889e-38
0.58297235 0.16317031 0.61000019 1.0786889e-38
0.58716589 0.16191415 0.61000019 1.0786889e-38
0.59244776 0.16248727 0.61000019 1.0786889e-38
0.59777021 0.16306476 0.61000019 1.0786889e-38
0.60227621 0.16216385 0.61000031 1.0786889e-38
0.6074658 0.16237301 0.61000037 1.0786889e-38
0.61291271 0.16295673 0.61000037 1.0786889e-38
0.61752445 0.16204491 0.61000037 1.0786889e-38
0.62172508 0.16213842 0.61000043 1.0786889e-38
0.62729448 0.16272789 0.61000049 1.0786889e-38
0.63268232 0.16294232 0.61000049 1.0786889e-38
0.63743407 0.16201741 0.61000055 1.0786889e-38
0.64176244 0.162828 0.61000055 1.0786889e-38
0.64619559 0.16413027 0.61000055 1.0786889e-38
0.73880005 0.16493654 0.61000127 1.0786889e-38
0.74407405 0.163534 0.61000127 1.0786889e-38
0.74832231 0.16240427 0.61000127 1.0786889e-38
0.75339836 0.16250835 0.61000133 1.0786889e-38
0.75742942 0.16289745 0.61000139 1.0786889e-38
0.76148564 0.16231455 0.61000139 1.0786889e-38
0.76720035 0.16227499 0.61000144 1.0786889e-38
0.77240962 0.16237998 0.6100015 1.0786889e-38
0.77765572 0.16248484 0.6100015 1.0786889e-38
0.78349775 0.16244639 0.61000156 1.0786889e-38
0.78769755 0.16284338 0.61000162 1.0786889e-38
0.79192394 0.16224819 0.61000156 1.0786889e-38
0.79759473 0.16278045 0.61000162 1.0786889e-38
0.80330867 0.1623145 0.61000168 1.0786889e-38
0.80762142 0.16271642 0.61000168 1.0786889e-38
0.81225175 0.16254255 0.61000174 1.0786889e-38
0.81778592 0.16265178 0.61000174 1.0786889e-38
0.822182 0.16204372 0.61000186 1.0786889e-38
0.82660657 0.16245016 0.6100018 1.0786889e-38
0.83284217 0.16240937 0.61000186 1.0786889e-38
0.8370263 0.16238265 0.61000192 1.0786889e-38
0.84153742 0.16279404 0.61000198 1.0786889e-38
0.84759182 0.16231444 0.61000198 1.0786889e-38
0.85216224 0.16272821 0.61000204 1.0786889e-38
0.85707033 0.16254923 0.61000204 1.0786889e-38
0.86293745 0.16266175 0.6100021 1.0786889e-38
0.86759907 0.16203561 0.61000216 1.0786889e-38
0.41872871 0.1686445 0.61452377 1.0694693e-38
0.55336589 0.1682772 0.61000001 1.0786889e-38
0.55737025 0.16706662 0.61000007 1.0786889e-38
0.56240767 0.16764672 0.61000007 1.0786889e-38
0.56748825 0.16766737 0.61000007 1.0786889e-38
0.5726071 0.16712393 0.61000007 1.0786889e-38
0.57777017 0.16771163 0.61000013 1.0786889e-38
0.58276337 0.16793747 0.61000019 1.0786889e-38
0.58716589 0.16706437 0.61000019 1.0786889e-38
0.59244776 0.16765857 0.61000019 1.0786889e-38
0.59755641 0.16788681 0.61000025 1.0786889e-38
0.60206097 0.16700345 0.61000031 1.0786889e-38
0.6074658 0.16760427 0.61000031 1.0786889e-38
0.61289436 0.16746885 0.61028856 1.0786889e-38
0.61730415 0.16694109 0.61000043 1.0786889e-38
0.62172508 0.16742666 0.61000043 1.0786889e-38
0.62701482 0.16778602 0.61000043 1.0786889e-38
0.63313341 0.16725698 0.61000049 1.0786889e-38
0.63743407 0.16736837 0.61000055 1.0786889e-38
0.64199108 0.16786283 0.61000055 1.0786889e-38
0.64657921 0.16746274 0.61000055 1.0786889e-38
0.6523602 0.1671844 0.61000067 1.0786889e-38
0.65795344 0.16814637 0.61000067 1.0786889e-38
0.66288716 0.16831255 0.61000073 1.0786889e-38
0.66761923 0.1688197 0.61000073 1.0786889e-38
0.72192323 0.16895109 0.61000109 1.0786889e-38
0.72750503 0.16889209 0.61000115 1.0786889e-38
0.73226261 0.16810709 0.61000121 1.0786889e-38
0.73748875 0.1676818 0.61000121 1.0786889e-38
0.74275309 0.1672525 0.61000127 1.0786889e-38
0.74805617 0.16778554 0.61000127 1.0786889e-38
0.7533983 0.16735348 0.61000133 1.0786889e-38
0.75742948 0.16775598 0.61000139 1.0786889e-38
0.76148558 0.16718657 0.61000139 1.0786889e-38
0.76692724 0.16772629 0.61000139 1.0786889e-38
0.77240956 0.16728838 0.61000144 1.0786889e-38
0.77821004 0.16726805 0.6100015 1.0786889e-38
0.78349775 0.16739167 0.61000156 1.0786889e-38
0.78769755 0.16780265 0.61000162 1.0786889e-38
0.79192388 0.16722153 0.61000156 1.0786889e-38
0.79759467 0.16777265 0.61000168 1.0786889e-38
0.80330867 0.16732574 0.61000162 1.0786889e-38
0.80762142 0.16774201 0.61000168 1.0786889e-38
0.81196165 0.16715293 0.61000168 1.0786889e-38
0.81778586 0.1677112 0.6100018 1.0786889e-38
0.822182 0.16711779 0.61000186 1.0786889e-38
0.82660657 0.16753896 0.6100018 1.0786889e-38
0.83254409 0.16708243 0.61000186 1.0786889e-38
0.83702624 0.1675061 0.61000192 1.0786889e-38
0.84153748 0.16793251 0.61000192 1.0786889e-38
0.84759188 0.16747308 0.61000198 1.0786889e-38
0.85216218 0.16790204 0.61000204 1.0786889e-38
0.85676283 0.16729602 0.61000204 1.0786889e-38
0.86293745 0.16787143 0.61000216 1.0786889e-38
0.86759907 0.16726083 0.61000216 1.0786889e-38
0.55336589 0.17329244 0.61000001 1.0786889e-38
0.55737025 0.17209785 0.61000007 1.0786889e-38
0.56240767 0.17269807 0.61000007 1.0786889e-38
0.56748825 0.17273897 0.61000007 1.0786889e-38
0.5726071 0.17221598 0.61000007 1.0786889e-38
0.57777017 0.17282429 0.61000013 1.0786889e-38
0.58318132 0.17209239 0.61000019 1.0786889e-38
0.58716589 0.17221458 0.61000019 1.0786889e-38
0.59244776 0.17282987 0.61000019 1.0786889e-38
0.59798402 0.17208955 0.61000025 1.0786889e-38
0.60206097 0.17221315 0.61000031 1.0786889e-38
0.6074658 0.17283557 0.61000031 1.0786889e-38
0.61313158 0.17208664 0.61000037 1.0786889e-38
0.61730415 0.17221169 0.61000037 1.0786889e-38
0.62172502 0.17271489 0.61000043 1.0786889e-38
0.62729484 0.17246269 0.61000049 1.0786889e-38
0.63290787 0.17221017 0.61000055 1.0786889e-38
0.63743407 0.17271936 0.61000055 1.0786889e-38
0.64176244 0.17284803 0.61000055 1.0786889e-38
0.64657921 0.17195232 0.61000055 1.0786889e-38
0.6523602 0.17259496 0.61000061 1.0786889e-38
0.65795344 0.17285416 0.61000067 1.0786889e-38
0.66288716 0.17194764 0.61000067 1.0786889e-38
0.66761923 0.1724674 0.61000073 1.0786889e-38
0.67238432 0.17299075 0.61000067 1.0786889e-38
0.67718256 0.17259946 0.61000085 1.0786889e-38
0.68201441 0.17404847 0.61000085 1.0786889e-38
0.68688035 0.1745829 0.61000091 1.0786889e-38
0.69055122 0.17498609 0.61000091 1.0786889e-38
0.70293224 0.17447507 0.61000097 1.0786889e-38
0.70669067 0.17394412 0.61000103 1.0786889e-38
0.71215349 0.17296438 0.61000103 1.0786889e-38
0.71706402 0.1726066 0.61000109 1.0786889e-38
0.72192317 0.17274337 0.61000109 1.0786889e-38
0.72707427 0.17233706 0.61000115 1.0786889e-38
0.7325229 0.17233662 0.61000121 1.0786889e-38
0.73748875 0.17247395 0.61000127 1.0786889e-38
0.74248898 0.17261139 0.61000127 1.0786889e-38
0.74805617 0.17261288 0.61000127 1.0786889e-38
0.75339836 0.17219859 0.61000133 1.0786889e-38
0.75742942 0.17261451 0.61000139 1.0786889e-38
0.76121455 0.1726149 0.61000139 1.0786889e-38
0.76692724 0.17261644 0.61000144 1.0786889e-38
0.7724095 0.17219676 0.6100015 1.0786889e-38
0.77793288 0.17275929 0.6100015 1.0786889e-38
0.78349769 0.17233698 0.61000156 1.0786889e-38
0.78769755 0.17276192 0.61000162 1.0786889e-38
0.79192382 0.17219488 0.61000156 1.0786889e-38
0.79759461 0.17276485 0.61000162 1.0786889e-38
0.80330867 0.17233697 0.61000168 1.0786889e-38
0.80762142 0.17276758 0.61000168 1.0786889e-38
0.81196165 0.17219295 0.61000174 1.0786889e-38
0.81778592 0.1727706 0.6100018 1.0786889e-38
0.822182 0.17219183 0.61000186 1.0786889e-38
0.82660657 0.17262772 0.6100018 1.0786889e-38
0.83254415 0.17219096 0.61000186 1.0786889e-38
0.8370263 0.17262955 0.61000192 1.0786889e-38
0.84123594 0.17262998 0.61000192 1.0786889e-38
0.84759176 0.17263168 0.61000198 1.0786889e-38
0.85216224 0.17307587 0.61000204 1.0786889e-38
0.85676289 0.17248516 0.61000204 1.0786889e-38
0.86293745 0.1720392 0.6100021 1.0786889e-38
0.86759907 0.17248604 0.61000216 1.0786889e-38
0.55336589 0.17830765 0.61000001 1.0786889e-38
0.55737025 0.17712905 0.61000007 1.0786889e-38
0.56240767 0.17774938 0.61000007 1.0786889e-38
0.56748855 0.1775288 0.61000007 1.0786889e-38
0.5726071 0.17730807 0.61000007 1.0786889e-38
0.57777017 0.177937 0.61000013 1.0786889e-38
0.58297235 0.17685956 0.61000019 1.0786889e-38
0.58716589 0.17736481 0.61000019 1.0786889e-38
0.59244776 0.1780012 0.61000019 1.0786889e-38
0.59777021 0.17691159 0.61000019 1.0786889e-38
0.60206097 0.17742287 0.61000031 1.0786889e-38
0.60719436 0.1778162 0.61000037 1.0786889e-38
0.61291271 0.17696486 0.61000037 1.0786889e-38
0.61730415 0.17748226 0.61000037 1.0786889e-38
0.62172508 0.17800315 0.61000043 1.0786889e-38
0.62757391 0.17714263 0.61000043 1.0786889e-38
0.63290787 0.17754309 0.61000055 1.0786889e-38
0.63743407 0.17807035 0.61000055 1.0786889e-38
0.64221972 0.17719544 0.61000055 1.0786889e-38
0.64657921 0.17733984 0.61000055 1.0786889e-38
0.65206981 0.17774628 0.61000061 1.0786889e-38
0.65842181 0.17725396 0.61000067 1.0786889e-38
0.66288716 0.17740028 0.61000067 1.0786889e-38
0.66761923 0.17793894 0.61000073 1.0786889e-38
0.67238426 0.17756625 0.61000073 1.0786889e-38
0.6771825 0.1771909 0.61000085 1.0786889e-38
0.68201441 0.17773449 0.61000085 1.0786889e-38
0.68663621 0.17788419 0.61000091 1.0786889e-38
0.69202644 0.17737535 0.61000085 1.0786889e-38
0.69671541 0.17752571 0.61000091 1.0786889e-38
0.70143598 0.17767631 0.61000097 1.0786889e-38
0.70694184 0.17716116 0.61000103 1.0786889e-38
0.71173191 0.17731243 0.61000103 1.0786889e-38
0.71680927 0.17787011 0.61000109 1.0786889e-38
0.72192323 0.17748372 0.61000109 1.0786889e-38
0.72707433 0.17709456 0.61000115 1.0786889e-38
0.73226255 0.17765749 0.61000115 1.0786889e-38
0.73722649 0.17781237 0.61000121 1.0786889e-38
0.74301732 0.1772846 0.61000127 1.0786889e-38
0.74805617 0.17744021 0.61000127 1.0786889e-38
0.7531302 0.17759603 0.61000133 1.0786889e-38
0.75742948 0.17747304 0.61000139 1.0786889e-38
0.76175666 0.17734872 0.61000139 1.0786889e-38
0.76692724 0.17750658 0.61000139 1.0786889e-38
0.77213442 0.17766467 0.61000144 1.0786889e-38
0.77793288 0.17768607 0.6100015 1.0786889e-38
0.78349775 0.17728227 0.61000156 1.0786889e-38
0.78769755 0.1777212 0.61000162 1.0786889e-38
0.79192388 0.17716822 0.61000156 1.0786889e-38
0.79759467 0.17775708 0.61000168 1.0786889e-38
0.80330867 0.17734818 0.61000162 1.0786889e-38
0.80762142 0.17779316 0.61000168 1.0786889e-38
0.81196165 0.17723298 0.61000168 1.0786889e-38
0.81778586 0.17783003 0.6100018 1.0786889e-38
0.822182 0.17726588 0.61000186 1.0786889e-38
0.82660657 0.17771649 0.61000186 1.0786889e-38
0.83254409 0.1772995 0.61000192 1.0786889e-38
0.83702624 0.177753 0.61000192 1.0786889e-38
0.84183902 0.17762274 0.61000192 1.0786889e-38
0.84728795 0.17734668 0.61000198 1.0786889e-38
0.85216224 0.17721494 0.61000204 1.0786889e-38
0.85676289 0.17767431 0.61000204 1.0786889e-38
0.86293745 0.17724888 0.6100021 1.0786889e-38
0.86759907 0.17771123 0.61000216 1.0786889e-38
0.41133711 0.18146734 0.6124056 1.0694693e-38
0.55336589 0.18332286 0.61000001 1.0786889e-38
0.55737031 0.18216026 0.61000007 1.0786889e-38
0.56240767 0.18280073 0.61000007 1.0786889e-38
0.56748825 0.18231875 0.61000007 1.0786889e-38
0.5726071 0.18240011 0.61000007 1.0786889e-38
0.57751095 0.18280369 0.61000013 1.0786889e-38
0.58297235 0.18199302 0.61000019 1.0786889e-38
0.58716589 0.18251501 0.61000019 1.0786889e-38
0.59218252 0.18292364 0.61000019 1.0786889e-38
0.59777021 0.18210417 0.61000019 1.0786889e-38
0.60206097 0.18263257 0.61000031 1.0786889e-38
0.6074661 0.18242523 0.61000037 1.0786889e-38
0.61291271 0.18221791 0.61000037 1.0786889e-38
0.61730415 0.18275285 0.61000043 1.0786889e-38
0.62150329 0.18291155 0.61000043 1.0786889e-38
0.62729448 0.18219966 0.61000049 1.0786889e-38
0.63290787 0.18287599 0.61000055 1.0786889e-38
0.63743412 0.18252949 0.61000055 1.0786889e-38
0.64199108 0.18218064 0.61000055 1.0786889e-38
0.64657921 0.18272734 0.61000055 1.0786889e-38
0.6523605 0.18251328 0.61000061 1.0786889e-38
0.65818763 0.18229921 0.61000067 1.0786889e-38
0.66288716 0.18285292 0.61000067 1.0786889e-38
0.66761923 0.18249854 0.61000073 1.0786889e-38
0.67238432 0.18214171 0.61000067 1.0786889e-38
0.6771825 0.18270065 0.61000085 1.0786889e-38
0.68177205 0.18286636 0.61000085 1.0786889e-38
0.68712449 0.18237856 0.61000091 1.0786889e-38
0.69178057 0.18254519 0.61000085 1.0786889e-38
0.69646776 0.18271208 0.61000097 1.0786889e-38
0.7019347 0.18221846 0.61000097 1.0786889e-38
0.70669061 0.18238634 0.61000103 1.0786889e-38
0.71173191 0.18296017 0.61000103 1.0786889e-38
0.71680927 0.18259345 0.61000109 1.0786889e-38
0.72192317 0.18222408 0.61000109 1.0786889e-38
0.72707421 0.18280356 0.61000115 1.0786889e-38
0.73226255 0.18243226 0.61000121 1.0786889e-38
0.73775101 0.18247044 0.61000127 1.0786889e-38
0.74275321 0.18264349 0.61000127 1.0786889e-38
0.74805617 0.18226755 0.61000127 1.0786889e-38
0.7536664 0.18230551 0.61000133 1.0786889e-38
0.75742942 0.18233156 0.61000139 1.0786889e-38
0.76148558 0.18277706 0.61000139 1.0786889e-38
0.76692724 0.18239672 0.61000144 1.0786889e-38
0.77268469 0.18243569 0.61000144 1.0786889e-38
0.77793288 0.18261284 0.6100015 1.0786889e-38
0.78349775 0.18222758 0.61000156 1.0786889e-38
0.78769755 0.18268046 0.61000162 1.0786889e-38
0.79192394 0.18214154 0.61000162 1.0786889e-38
0.79759461 0.18274929 0.61000162 1.0786889e-38
0.80330861 0.18235943 0.61000162 1.0786889e-38
0.80762142 0.18281876 0.61000168 1.0786889e-38
0.81196165 0.18227302 0.61000174 1.0786889e-38
0.81749356 0.18245336 0.6100018 1.0786889e-38
0.822182 0.18233991 0.61000186 1.0786889e-38
0.82660651 0.18280526 0.6100018 1.0786889e-38
0.83254403 0.18240803 0.61000186 1.0786889e-38
0.8370263 0.18287645 0.61000192 1.0786889e-38
0.84153742 0.18232022 0.61000198 1.0786889e-38
0.84789574 0.18236084 0.61000198 1.0786889e-38
0.85216218 0.18238877 0.61000204 1.0786889e-38
0.85645533 0.18241617 0.61000204 1.0786889e-38
0.86293745 0.18245856 0.61000216 1.0786889e-38
0.86759907 0.18293643 0.61000216 1.0786889e-38
0.55336589 0.18750221 0.61000001 1.0786889e-38
0.55737025 0.18719146 0.61000007 1.0786889e-38
0.56240767 0.18785204 0.61000007 1.0786889e-38
0.56748819 0.18739036 0.61000007 1.0786889e-38
0.5726071 0.18749219 0.61000007 1.0786889e-38
0.57777017 0.18759337 0.61000013 1.0786889e-38
0.58297235 0.18712647 0.61000019 1.0786889e-38
0.58716589 0.18766522 0.61000019 1.0786889e-38
0.59244806 0.18748091 0.61000019 1.0786889e-38
0.59777021 0.18729675 0.61000019 1.0786889e-38
0.60206097 0.18784225 0.61000031 1.0786889e-38
0.6074658 0.18736598 0.61000031 1.0786889e-38
0.61291271 0.18747093 0.61000037 1.0786889e-38
0.61730427 0.18802343 0.61000037 1.0786889e-38
0.62194687 0.18719673 0.61000043 1.0786889e-38
0.62729448 0.18751015 0.61000049 1.0786889e-38
0.63268232 0.18782501 0.61000049 1.0786889e-38
0.63743407 0.18698865 0.61000055 1.0786889e-38
0.64199108 0.18754983 0.61000055 1.0786889e-38
0.64634901 0.18772702 0.61000055 1.0786889e-38
0.65265024 0.18728361 0.61000061 1.0786889e-38
0.65818763 0.1877331 0.61000067 1.0786889e-38
0.66265136 0.18791303 0.61000073 1.0786889e-38
0.66761923 0.18705815 0.61000073 1.0786889e-38
0.67238426 0.18763228 0.61000067 1.0786889e-38
0.67694175 0.18781373 0.61000085 1.0786889e-38
0.68225682 0.18734673 0.61000085 1.0786889e-38
0.68688035 0.18752933 0.61000091 1.0786889e-38
0.6915347 0.18771239 0.61000085 1.0786889e-38
0.69696301 0.18724 0.61000097 1.0786889e-38
0.70168537 0.18742418 0.61000103 1.0786889e-38
0.7064395 0.18760884 0.61000103 1.0786889e-38
0.71173185 0.18766659 0.61000103 1.0786889e-38
0.71680927 0.18731678 0.61000109 1.0786889e-38
0.72192329 0.18791251 0.61000109 1.0786889e-38
0.72707421 0.18756106 0.61000115 1.0786889e-38
0.73226255 0.18720703 0.61000115 1.0786889e-38
0.73748875 0.18780887 0.61000127 1.0786889e-38
0.74275315 0.18745317 0.61000127 1.0786889e-38
0.74805617 0.18709487 0.61000127 1.0786889e-38
0.75339824 0.18770295 0.61000133 1.0786889e-38
0.75742948 0.1871901 0.61000139 1.0786889e-38
0.76148558 0.18764912 0.61000139 1.0786889e-38
0.76692724 0.18728687 0.61000139 1.0786889e-38
0.77213442 0.18747962 0.61000144 1.0786889e-38
0.77793288 0.18753961 0.6100015 1.0786889e-38
0.78349775 0.18717287 0.61000156 1.0786889e-38
0.78769755 0.18763976 0.61000162 1.0786889e-38
0.79164141 0.18767992 0.61000156 1.0786889e-38
0.79759467 0.1877415 0.61000168 1.0786889e-38
0.80330867 0.18737066 0.61000162 1.0786889e-38
0.80762142 0.18784434 0.61000168 1.0786889e-38
0.81196165 0.18731304 0.61000168 1.0786889e-38
0.81807822 0.18737304 0.6100018 1.0786889e-38
0.822182 0.18741398 0.61000186 1.0786889e-38
0.82631075 0.18745445 0.6100018 1.0786889e-38
0.83254409 0.18751657 0.61000186 1.0786889e-38
0.83702624 0.1879999 0.61000192 1.0786889e-38
0.84153742 0.18745868 0.61000198 1.0786889e-38
0.84759182 0.18707581 0.61000198 1.0786889e-38
0.85216224 0.18756258 0.61000204 1.0786889e-38
0.85707033 0.18746202 0.61000204 1.0786889e-38
0.86293745 0.18766826 0.6100021 1.0786889e-38
0.86759907 0.18711661 0.61000216 1.0786889e-38
0.55336589 0.19168156 0.61000001 1.0786889e-38
0.55737031 0.19222267 0.61000007 1.0786889e-38
0.56240767 0.19290335 0.61000007 1.0786889e-38
0.56774306 0.19214444 0.61000007 1.0786889e-38
0.5726071 0.19258426 0.61000007 1.0786889e-38
0.57777017 0.19270605 0.61000013 1.0786889e-38
0.58297235 0.19225995 0.61000019 1.0786889e-38
0.58716589 0.19281544 0.61000019 1.0786889e-38
0.59244776 0.19236499 0.61000019 1.0786889e-38
0.59777021 0.19248931 0.61000019 1.0786889e-38
0.60206097 0.19305198 0.61000031 1.0786889e-38
0.60773695 0.19226979 0.61000031 1.0786889e-38
0.61291277 0.192724 0.61000037 1.0786889e-38
0.61708391 0.19291374 0.61000037 1.0786889e-38
0.62172508 0.19210513 0.61000043 1.0786889e-38
0.62729454 0.19282064 0.61000049 1.0786889e-38
0.63313341 0.19214806 0.61000049 1.0786889e-38
0.63743407 0.19233964 0.61000055 1.0786889e-38
0.64199108 0.19291902 0.61000055 1.0786889e-38
0.6468094 0.19209434 0.61000055 1.0786889e-38
0.6523602 0.1924338 0.61000061 1.0786889e-38
0.6579535 0.19277494 0.61000067 1.0786889e-38
0.66312295 0.19233319 0.61000073 1.0786889e-38
0.66761923 0.19252972 0.61000073 1.0786889e-38
0.67214525 0.19272673 0.61000073 1.0786889e-38
0.6774233 0.1922802 0.61000085 1.0786889e-38
0.68201447 0.19247858 0.61000085 1.0786889e-38
0.68663615 0.19267751 0.61000091 1.0786889e-38
0.69202644 0.19222607 0.61000085 1.0786889e-38
0.69671541 0.19242637 0.61000103 1.0786889e-38
0.70143598 0.19262724 0.61000097 1.0786889e-38
0.70694184 0.19217074 0.61000103 1.0786889e-38
0.71173191 0.19237304 0.61000103 1.0786889e-38
0.71655452 0.19257589 0.61000109 1.0786889e-38
0.72192323 0.19265287 0.61000109 1.0786889e-38
0.72707433 0.19231856 0.61000115 1.0786889e-38
0.73200214 0.1925234 0.61000121 1.0786889e-38
0.73748875 0.19260103 0.61000127 1.0786889e-38
0.74275309 0.19226287 0.61000127 1.0786889e-38
0.74805617 0.19288768 0.61000127 1.0786889e-38
0.7533983 0.19254807 0.61000133 1.0786889e-38
0.75742942 0.19204862 0.61000139 1.0786889e-38
0.76148558 0.19252115 0.61000139 1.0786889e-38
0.76665413 0.19273165 0.61000139 1.0786889e-38
0.77268469 0.1922543 0.61000144 1.0786889e-38
0.77793288 0.19246638 0.6100015 1.0786889e-38
0.78321844 0.19267906 0.61000156 1.0786889e-38
0.78769755 0.19259901 0.61000162 1.0786889e-38
0.79220635 0.19251789 0.61000162 1.0786889e-38
0.79759461 0.19273372 0.61000162 1.0786889e-38
0.80330861 0.19238189 0.61000168 1.0786889e-38
0.80762142 0.19286993 0.61000168 1.0786889e-38
0.81196165 0.19235307 0.61000174 1.0786889e-38
0.81749356 0.19257024 0.61000174 1.0786889e-38
0.822182 0.19248801 0.61000186 1.0786889e-38
0.82690227 0.19240463 0.6100018 1.0786889e-38
0.83254409 0.19262511 0.61000186 1.0786889e-38
0.83702624 0.19209868 0.61000192 1.0786889e-38
0.84153742 0.19259715 0.61000198 1.0786889e-38
0.8475917 0.19223444 0.61000198 1.0786889e-38
0.85216218 0.19273643 0.61000204 1.0786889e-38
0.85676283 0.19220391 0.61000204 1.0786889e-38
0.86293745 0.19287795 0.61000216 1.0786889e-38
0.86759907 0.19234182 0.61000216 1.0786889e-38
0.55336589 0.1966968 0.61000001 1.0786889e-38
0.55737025 0.19725388 0.61000007 1.0786889e-38
0.56240767 0.19795471 0.61000007 1.0786889e-38
0.56748825 0.196971 0.61000007 1.0786889e-38
0.5726071 0.19767635 0.61000007 1.0786889e-38
0.57777047 0.19753464 0.61000013 1.0786889e-38
0.58297235 0.1973934 0.61000019 1.0786889e-38
0.58716589 0.19796567 0.61000019 1.0786889e-38
0.5927127 0.19721358 0.61000019 1.0786889e-38
0.59777021 0.19768186 0.61000019 1.0786889e-38
0.60184574 0.19788499 0.61000031 1.0786889e-38
0.60746586 0.19724828 0.61000037 1.0786889e-38
0.61291277 0.19797705 0.61000031 1.0786889e-38
0.6175245 0.197188 0.61000043 1.0786889e-38
0.62172508 0.19739336 0.61000043 1.0786889e-38
0.62701482 0.19787244 0.61000043 1.0786889e-38
0.63290787 0.19709708 0.61000055 1.0786889e-38
0.63743407 0.19769062 0.61000055 1.0786889e-38
0.64176244 0.19789997 0.61000055 1.0786889e-38
0.64657921 0.19709404 0.61000055 1.0786889e-38
0.6523602 0.19784443 0.61000061 1.0786889e-38
0.65842181 0.19718158 0.61000067 1.0786889e-38
0.66288716 0.1973933 0.61000067 1.0786889e-38
0.66761923 0.19800122 0.61000073 1.0786889e-38
0.6726234 0.19717935 0.61000073 1.0786889e-38
0.6771825 0.1973933 0.61000085 1.0786889e-38
0.68177193 0.19760787 0.61000079 1.0786889e-38
0.68712449 0.19717705 0.61000091 1.0786889e-38
0.69178057 0.19739325 0.61000085 1.0786889e-38
0.69646776 0.19761011 0.61000097 1.0786889e-38
0.7019347 0.19717474 0.61000097 1.0786889e-38
0.70669073 0.19739324 0.61000103 1.0786889e-38
0.71147895 0.19761243 0.61000103 1.0786889e-38
0.71706402 0.19717236 0.61000109 1.0786889e-38
0.72192317 0.19739322 0.61000109 1.0786889e-38
0.72681582 0.19761479 0.61000115 1.0786889e-38
0.7325229 0.19716993 0.61000121 1.0786889e-38
0.73748875 0.19739319 0.61000127 1.0786889e-38
0.74248898 0.19761717 0.61000127 1.0786889e-38
0.74805617 0.19771501 0.61000127 1.0786889e-38
0.75339836 0.19739318 0.61000133 1.0786889e-38
0.75742942 0.19787888 0.61000139 1.0786889e-38
0.76148558 0.19739318 0.61000139 1.0786889e-38
0.76720035 0.19749054 0.61000144 1.0786889e-38
0.77240962 0.19772039 0.6100015 1.0786889e-38
0.77793282 0.19739315 0.6100015 1.0786889e-38
0.78377694 0.19749162 0.61000156 1.0786889e-38
0.78769755 0.19755828 0.61000162 1.0786889e-38
0.79164141 0.19762471 0.61000156 1.0786889e-38
0.79759467 0.19772594 0.61000168 1.0786889e-38
0.80330867 0.19739312 0.61000162 1.0786889e-38
0.80762142 0.19789553 0.61000168 1.0786889e-38
0.81196165 0.1973931 0.61000168 1.0786889e-38
0.81807822 0.19749382 0.6100018 1.0786889e-38
0.822182 0.19756205 0.61000186 1.0786889e-38
0.82631081 0.19763003 0.6100018 1.0786889e-38
0.83254409 0.19773364 0.61000186 1.0786889e-38
0.8370263 0.19722211 0.61000192 1.0786889e-38
0.84153748 0.19773562 0.61000198 1.0786889e-38
0.84759182 0.19739304 0.61000198 1.0786889e-38
0.85216224 0.19791025 0.61000204 1.0786889e-38
0.85676283 0.19739304 0.61000204 1.0786889e-38
0.86262751 0.19763561 0.61000216 1.0786889e-38
0.86759907 0.19756702 0.61000216 1.0786889e-38
0.55336589 0.20171201 0.61000001 1.0786889e-38
0.55737025 0.20228511 0.61000007 1.0786889e-38
0.56240767 0.20300604 0.61000007 1.0786889e-38
0.56748819 0.20204262 0.61000007 1.0786889e-38
0.5726071 0.20276839 0.61000007 1.0786889e-38
0.57777017 0.20236336 0.61000013 1.0786889e-38
0.58297235 0.20252688 0.61000019 1.0786889e-38
0.58716589 0.20311587 0.61000019 1.0786889e-38
0.59244776 0.20213395 0.61000019 1.0786889e-38
0.59777021 0.20287444 0.61000019 1.0786889e-38
0.60227621 0.20211148 0.61000031 1.0786889e-38
0.60746586 0.20247957 0.61000037 1.0786889e-38
0.61269391 0.20284943 0.61000037 1.0786889e-38
0.61730415 0.20207834 0.61000043 1.0786889e-38
0.62172502 0.2026816 0.61000043 1.0786889e-38
0.62729484 0.20255545 0.61000049 1.0786889e-38
0.63290787 0.20242997 0.61000055 1.0786889e-38
0.63743407 0.20304161 0.61000055 1.0786889e-38
0.64221972 0.20225587 0.61000055 1.0786889e-38
0.64657921 0.20248152 0.61000055 1.0786889e-38
0.65202874 0.20269492 0.61000061 1.0786889e-38
0.65818763 0.20222342 0.61000067 1.0786889e-38
0.66288716 0.20284593 0.61000067 1.0786889e-38
0.66761923 0.20256086 0.61000073 1.0786889e-38
0.67238426 0.2022738 0.61000067 1.0786889e-38
0.6771825 0.20290303 0.61000085 1.0786889e-38
0.68225682 0.20209339 0.61000085 1.0786889e-38
0.68688029 0.20232522 0.61000091 1.0786889e-38
0.69178057 0.20296131 0.61000091 1.0786889e-38
0.69696301 0.20214328 0.61000097 1.0786889e-38
0.70168537 0.20237778 0.61000103 1.0786889e-38
0.7064395 0.20261307 0.61000103 1.0786889e-38
0.71198487 0.20219426 0.61000103 1.0786889e-38
0.71680927 0.20243146 0.61000109 1.0786889e-38
0.72166663 0.20266946 0.61000109 1.0786889e-38
0.72733271 0.20224634 0.61000115 1.0786889e-38
0.73226261 0.20248629 0.61000115 1.0786889e-38
0.73722649 0.20272708 0.61000121 1.0786889e-38
0.74301732 0.20229955 0.61000127 1.0786889e-38
0.74805617 0.20254235 0.61000127 1.0786889e-38
0.75313026 0.20278597 0.61000133 1.0786889e-38
0.75742948 0.20273741 0.61000139 1.0786889e-38
0.76148558 0.2022652 0.61000139 1.0786889e-38
0.76665419 0.20251012 0.61000139 1.0786889e-38
0.77240956 0.20262878 0.61000144 1.0786889e-38
0.77793282 0.20231992 0.6100015 1.0786889e-38
0.78321838 0.20256779 0.61000156 1.0786889e-38
0.78769755 0.20251757 0.61000162 1.0786889e-38
0.79220641 0.20246641 0.61000162 1.0786889e-38
0.79759473 0.20271815 0.61000162 1.0786889e-38
0.80330861 0.20240435 0.61000162 1.0786889e-38
0.80762142 0.20292109 0.61000168 1.0786889e-38
0.81196171 0.20243315 0.61000174 1.0786889e-38
0.81749356 0.20268711 0.6100018 1.0786889e-38
0.822182 0.20263611 0.61000186 1.0786889e-38
0.82690227 0.20258415 0.6100018 1.0786889e-38
0.83224612 0.20239799 0.61000192 1.0786889e-38
0.83702624 0.20234558 0.61000192 1.0786889e-38
0.84153748 0.20287408 0.61000192 1.0786889e-38
0.84759188 0.20255168 0.61000198 1.0786889e-38
0.85216224 0.20204931 0.61000204 1.0786889e-38
0.85676289 0.2025822 0.61000204 1.0786889e-38
0.86324739 0.20270745 0.61000216 1.0786889e-38
0.86759907 0.20279223 0.61000216 1.0786889e-38
0.55336589 0.20672721 0.61000001 1.0786889e-38
0.55737025 0.20731629 0.61000007 1.0786889e-38
0.56240767 0.20805736 0.61000007 1.0786889e-38
0.56748825 0.20711422 0.61000007 1.0786889e-38
0.5726071 0.20786047 0.61000007 1.0786889e-38
0.57802916 0.207159 0.61000013 1.0786889e-38
0.58297235 0.20766032 0.61000019 1.0786889e-38
0.58695555 0.20789206 0.61000019 1.0786889e-38
0.59244776 0.20730527 0.61000019 1.0786889e-38
0.59777021 0.20806701 0.61000019 1.0786889e-38
0.60206097 0.20694451 0.61000031 1.0786889e-38
0.6074658 0.20771085 0.61000031 1.0786889e-38
0.61313158 0.20711276 0.61000037 1.0786889e-38
0.61730415 0.2073489 0.61000037 1.0786889e-38
0.62172508 0.20796984 0.61000043 1.0786889e-38
0.62757397 0.20724171 0.61000049 1.0786889e-38
0.63290793 0.2077629 0.61000055 1.0786889e-38
0.63743412 0.20750074 0.61000049 1.0786889e-38
0.64199108 0.20723684 0.61000055 1.0786889e-38
0.64657921 0.20786904 0.61000055 1.0786889e-38
0.65265024 0.20712671 0.61000067 1.0786889e-38
0.65818769 0.20765729 0.61000067 1.0786889e-38
0.66265136 0.20790258 0.61000073 1.0786889e-38
0.66761923 0.20712048 0.61000073 1.0786889e-38
0.67238426 0.20776437 0.61000067 1.0786889e-38
0.67718256 0.20749447 0.61000085 1.0786889e-38
0.68201441 0.20722266 0.61000079 1.0786889e-38
0.68688035 0.2078737 0.61000091 1.0786889e-38
0.69178057 0.20760134 0.61000085 1.0786889e-38
0.69671541 0.20732702 0.61000091 1.0786889e-38
0.70143592 0.20757818 0.61000097 1.0786889e-38
0.70694184 0.20718034 0.61000103 1.0786889e-38
0.71173191 0.20743364 0.61000103 1.0786889e-38
0.71655452 0.20768782 0.61000109 1.0786889e-38
0.72217983 0.20728615 0.61000109 1.0786889e-38
0.72707421 0.20754255 0.61000115 1.0786889e-38
0.73200214 0.20779988 0.61000121 1.0786889e-38
0.73775101 0.20739424 0.61000121 1.0786889e-38
0.74275309 0.20765387 0.61000127 1.0786889e-38
0.74805617 0.20736969 0.61000127 1.0786889e-38
0.7536664 0.20750475 0.61000133 1.0786889e-38
0.75742942 0.20759594 0.61000139 1.0786889e-38
0.76121449 0.20768705 0.61000139 1.0786889e-38
0.76720035 0.20727265 0.61000144 1.0786889e-38
0.77240962 0.20753716 0.6100015 1.0786889e-38
0.77793288 0.20724669 0.6100015 1.0786889e-38
0.78377706 0.20738406 0.61000156 1.0786889e-38
0.78769755 0.20747684 0.61000162 1.0786889e-38
0.79164135 0.20756952 0.61000156 1.0786889e-38
0.79759467 0.20771036 0.61000162 1.0786889e-38
0.80330867 0.20741558 0.61000162 1.0786889e-38
0.80762142 0.2079467 0.61000168 1.0786889e-38
0.81196165 0.20747316 0.61000168 1.0786889e-38
0.81807822 0.20761462 0.6100018 1.0786889e-38
0.822182 0.20771015 0.61000186 1.0786889e-38
0.82660657 0.20723137 0.6100018 1.0786889e-38
0.83284217 0.20737319 0.61000186 1.0786889e-38
0.8370263 0.20746903 0.61000192 1.0786889e-38
0.84123594 0.20756474 0.61000198 1.0786889e-38
0.84759182 0.2077103 0.61000198 1.0786889e-38
0.85216218 0.20722313 0.61000204 1.0786889e-38
0.85645545 0.20731914 0.61000204 1.0786889e-38
0.86293745 0.20746508 0.61000216 1.0786889e-38
0.86759907 0.20801744 0.61000216 1.0786889e-38
0.55336589 0.21174245 0.61000001 1.0786889e-38
0.55737025 0.21234752 0.61000007 1.0786889e-38
0.56240767 0.2131087 0.61000007 1.0786889e-38
0.56748825 0.21218586 0.61000007 1.0786889e-38
0.5726071 0.21295251 0.61000007 1.0786889e-38
0.57777023 0.21202159 0.61000013 1.0786889e-38
0.58297235 0.21279381 0.61000019 1.0786889e-38
0.58716589 0.21255724 0.61000019 1.0786889e-38
0.59244776 0.21247658 0.61000019 1.0786889e-38
0.59755641 0.21288165 0.61000025 1.0786889e-38
0.60206097 0.21215421 0.61000031 1.0786889e-38
0.60719436 0.21268424 0.61000037 1.0786889e-38
0.61291277 0.21198516 0.61000037 1.0786889e-38
0.61730421 0.2126195 0.61000037 1.0786889e-38
0.62150329 0.21287319 0.61000043 1.0786889e-38
0.62729448 0.2122924 0.61000055 1.0786889e-38
0.63268232 0.21270768 0.61000049 1.0786889e-38
0.63743407 0.21195991 0.61000055 1.0786889e-38
0.64199108 0.21260601 0.61000055 1.0786889e-38
0.64634901 0.21286444 0.61000055 1.0786889e-38
0.6523602 0.21227267 0.61000061 1.0786889e-38
0.6579535 0.21269569 0.61000067 1.0786889e-38
0.66312295 0.21232967 0.61000073 1.0786889e-38
0.66761923 0.21259202 0.61000073 1.0786889e-38
0.67214525 0.21285534 0.61000073 1.0786889e-38
0.6771825 0.2120859 0.61000085 1.0786889e-38
0.68201447 0.2127517 0.61000085 1.0786889e-38
0.68688035 0.21249743 0.61000091 1.0786889e-38
0.69178057 0.21224137 0.61000085 1.0786889e-38
0.69671541 0.21291481 0.61000103 1.0786889e-38
0.7019347 0.21213098 0.61000097 1.0786889e-38
0.70669061 0.21240014 0.61000103 1.0786889e-38
0.71147895 0.21267033 0.61000103 1.0786889e-38
0.71706402 0.21228974 0.61000109 1.0786889e-38
0.72192317 0.21256237 0.61000109 1.0786889e-38
0.72681582 0.21283603 0.61000115 1.0786889e-38
0.7325229 0.21245196 0.61000121 1.0786889e-38
0.73748875 0.2127281 0.61000127 1.0786889e-38
0.74275315 0.21246354 0.61000127 1.0786889e-38
0.74805623 0.21219702 0.61000127 1.0786889e-38
0.7531302 0.21247442 0.61000133 1.0786889e-38
0.75742948 0.21245447 0.61000139 1.0786889e-38
0.76175666 0.21243386 0.61000139 1.0786889e-38
0.76692724 0.21271563 0.61000139 1.0786889e-38
0.77240956 0.21244556 0.61000144 1.0786889e-38
0.77793288 0.21217346 0.6100015 1.0786889e-38
0.78321838 0.21245651 0.61000156 1.0786889e-38
0.78769755 0.21243611 0.61000162 1.0786889e-38
0.79220641 0.21241498 0.61000162 1.0786889e-38
0.79759461 0.21270259 0.61000162 1.0786889e-38
0.80330861 0.21242681 0.61000168 1.0786889e-38
0.80762142 0.21297227 0.61000168 1.0786889e-38
0.81196159 0.21251321 0.61000162 1.0786889e-38
0.81778586 0.21223405 0.6100018 1.0786889e-38
0.822182 0.2127842 0.61000186 1.0786889e-38
0.82660651 0.21232013 0.6100018 1.0786889e-38
0.83224601 0.21261306 0.61000192 1.0786889e-38
0.83702624 0.21259248 0.61000192 1.0786889e-38
0.84183902 0.21257114 0.61000192 1.0786889e-38
0.84728795 0.21241839 0.61000198 1.0786889e-38
0.85216224 0.21239698 0.61000204 1.0786889e-38
0.85707033 0.21237481 0.61000204 1.0786889e-38
0.86293745 0.2126748 0.6100021 1.0786889e-38
0.86759907 0.2121976 0.61000216 1.0786889e-38
0.55336589 0.21675766 0.61000001 1.0786889e-38
0.55737019 0.21737869 0.61000007 1.0786889e-38
0.56220531 0.21779163 0.61000001 1.0786889e-38
0.56748819 0.21725744 0.61000007 1.0786889e-38
0.5726071 0.21804459 0.61000007 1.0786889e-38
0.57777017 0.21713427 0.61000013 1.0786889e-38
0.58297235 0.21792728 0.61000019 1.0786889e-38
0.58737624 0.21722463 0.61000019 1.0786889e-38
0.59244776 0.2176479 0.61000019 1.0786889e-38
0.59798402 0.21709919 0.61000025 1.0786889e-38
0.60206097 0.21736391 0.61000031 1.0786889e-38
0.6074658 0.21759121 0.61000037 1.0786889e-38
0.61291277 0.21723823 0.61000037 1.0786889e-38
0.61730415 0.21789008 0.61000037 1.0786889e-38
0.62194687 0.21716848 0.61000043 1.0786889e-38
0.62729454 0.21760291 0.61000043 1.0786889e-38
0.63313341 0.21703915 0.61000049 1.0786889e-38
0.63743407 0.21731089 0.61000055 1.0786889e-38
0.64199108 0.21797521 0.61000055 1.0786889e-38
0.6468094 0.21724033 0.61000055 1.0786889e-38
0.6523602 0.21768326 0.61000061 1.0786889e-38
0.65842181 0.2171092 0.61000067 1.0786889e-38
0.66288716 0.21738632 0.61000067 1.0786889e-38
0.66738182 0.21766451 0.61000073 1.0786889e-38
0.6726234 0.21731493 0.61000073 1.0786889e-38
0.6771825 0.21759565 0.61000085 1.0786889e-38
0.68177205 0.21787746 0.61000085 1.0786889e-38
0.68688035 0.21712114 0.61000091 1.0786889e-38
0.69178057 0.21780942 0.61000085 1.0786889e-38
0.69671541 0.21757123 0.61000097 1.0786889e-38
